19.7053 28.57 28.57 2 7 3
19.6736 28.5457 28.5457 2 7 3
19.6578 28.5335 28.5335 2 7 3
19.6419 28.5213 28.5213 2 7 3
19.6261 28.5091 28.5091 2 7 3
19.6102 28.4969 28.4969 2 7 3
19.5944 28.4847 28.4847 2 7 3
19.5786 28.4725 28.4725 2 7 3
19.5628 28.4603 28.4603 2 7 3
19.5469 28.4481 28.4481 2 7 3
19.5311 28.4359 28.4359 2 7 3
19.5153 28.4237 28.4237 2 7 3
19.4995 28.4114 28.4114 2 7 3
19.4837 28.3992 28.3992 2 7 3
19.4679 28.387 28.387 2 7 3
19.4521 28.3747 28.3747 2 7 3
19.4363 28.3625 28.3625 2 7 3
19.4205 28.3502 28.3502 2 7 3
19.4047 28.338 28.338 2 7 3
19.3889 28.3257 28.3257 2 7 3
19.3731 28.3134 28.3134 2 7 3
19.3574 28.3012 28.3012 2 7 3
19.3416 28.2889 28.2889 2 7 3
19.3258 28.2766 28.2766 2 7 3
19.3101 28.2643 28.2643 2 7 3
19.2943 28.252 28.252 2 7 3
19.2785 28.2397 28.2397 2 7 3
19.2628 28.2274 28.2274 2 7 3
19.247 28.2151 28.2151 2 7 3
19.2313 28.2028 28.2028 2 7 3
19.2156 28.1905 28.1905 2 7 3
19.1998 28.1782 28.1782 2 7 3
19.1841 28.1658 28.1658 2 7 3
19.1684 28.1535 28.1535 2 7 3
19.1526 28.1412 28.1412 2 7 3
19.1369 28.1288 28.1288 2 7 3
19.1212 28.1165 28.1165 2 7 3
19.1055 28.1041 28.1041 2 7 3
19.0898 28.0918 28.0918 2 7 3
19.0741 28.0794 28.0794 2 7 3
19.0584 28.067 28.067 2 7 3
19.0427 28.0547 28.0547 2 7 3
19.027 28.0423 28.0423 2 7 3
19.0113 28.0299 28.0299 2 7 3
18.9956 28.0175 28.0175 2 7 3
18.9799 28.0051 28.0051 2 7 3
18.9642 27.9927 27.9927 2 7 3
18.9486 27.9803 27.9803 2 7 3
18.9329 27.9679 27.9679 2 7 3
18.9172 27.9555 27.9555 2 7 3
18.9016 27.9431 27.9431 2 7 3
18.8859 27.9307 27.9307 2 7 3
18.8703 27.9182 27.9182 2 7 3
18.8546 27.9058 27.9058 2 7 3
18.839 27.8934 27.8934 2 7 3
18.8233 27.8809 27.8809 2 7 3
18.8077 27.8685 27.8685 2 7 3
18.7921 27.856 27.856 2 7 3
18.7764 27.8436 27.8436 2 7 3
18.7608 27.8311 27.8311 2 7 3
18.7452 27.8186 27.8186 2 7 3
18.7296 27.8062 27.8062 2 7 3
18.714 27.7937 27.7937 2 7 3
18.6984 27.7812 27.7812 2 7 3
18.6827 27.7687 27.7687 2 7 3
18.6671 27.7562 27.7562 2 7 3
18.6515 27.7437 27.7437 2 7 3
18.636 27.7312 27.7312 2 7 3
18.6204 27.7187 27.7187 2 7 3
18.6048 27.7062 27.7062 2 7 3
18.5892 27.6937 27.6937 2 7 3
18.5736 27.6812 27.6812 2 7 3
18.5581 27.6686 27.6686 2 7 3
18.5425 27.6561 27.6561 2 7 3
18.5269 27.6436 27.6436 2 7 3
18.5114 27.631 27.631 2 7 3
18.4958 27.6185 27.6185 2 7 3
18.4803 27.6059 27.6059 2 7 3
18.4647 27.5933 27.5933 2 7 3
18.4492 27.5808 27.5808 2 7 3
18.4336 27.5682 27.5682 2 7 3
18.4181 27.5556 27.5556 2 7 3
18.4026 27.5431 27.5431 2 7 3
18.387 27.5305 27.5305 2 7 3
18.3715 27.5179 27.5179 2 7 3
18.356 27.5053 27.5053 2 7 3
18.3405 27.4927 27.4927 2 7 3
18.325 27.4801 27.4801 2 7 3
18.3095 27.4675 27.4675 2 7 3
18.294 27.4549 27.4549 2 7 3
18.2785 27.4423 27.4423 2 7 3
18.263 27.4296 27.4296 2 7 3
18.2475 27.417 27.417 2 7 3
18.232 27.4044 27.4044 2 7 3
18.2165 27.3917 27.3917 2 7 3
18.201 27.3791 27.3791 2 7 3
18.1856 27.3664 27.3664 2 7 3
18.1701 27.3538 27.3538 2 7 3
18.1546 27.3411 27.3411 2 7 3
18.1392 27.3285 27.3285 2 7 3
18.1237 27.3158 27.3158 2 7 3
18.1083 27.3031 27.3031 2 7 3
18.0928 27.2904 27.2904 2 7 3
18.0774 27.2777 27.2777 2 7 3
18.0619 27.2651 27.2651 2 7 3
18.0465 27.2524 27.2524 2 7 3
18.0311 27.2397 27.2397 2 7 3
18.0156 27.227 27.227 2 7 3
18.0002 27.2142 27.2142 2 7 3
17.9848 27.2015 27.2015 2 7 3
17.9694 27.1888 27.1888 2 7 3
17.954 27.1761 27.1761 2 7 3
17.9386 27.1633 27.1633 2 7 3
17.9232 27.1506 27.1506 2 7 3
17.9078 27.1379 27.1379 2 7 3
17.8924 27.1251 27.1251 2 7 3
17.877 27.1124 27.1124 2 7 3
17.8616 27.0996 27.0996 2 7 3
17.8462 27.0869 27.0869 2 7 3
17.8308 27.0741 27.0741 2 7 3
17.8155 27.0613 27.0613 2 7 3
17.8001 27.0485 27.0485 2 7 3
17.7847 27.0358 27.0358 2 7 3
17.7694 27.023 27.023 2 7 3
17.754 27.0102 27.0102 2 7 3
17.7387 26.9974 26.9974 2 7 3
17.7233 26.9846 26.9846 2 7 3
17.708 26.9718 26.9718 2 7 3
17.6926 26.959 26.959 2 7 3
17.6773 26.9462 26.9462 2 7 3
17.662 26.9333 26.9333 2 7 3
17.6467 26.9205 26.9205 2 7 3
17.6313 26.9077 26.9077 2 7 3
17.616 26.8948 26.8948 2 7 3
17.6007 26.882 26.882 2 7 3
17.5854 26.8691 26.8691 2 7 3
17.5701 26.8563 26.8563 2 7 3
17.5548 26.8434 26.8434 2 7 3
17.5395 26.8306 26.8306 2 7 3
17.5242 26.8177 26.8177 2 7 3
17.5089 26.8048 26.8048 2 7 3
17.4937 26.7919 26.7919 2 7 3
17.4784 26.7791 26.7791 2 7 3
17.4631 26.7662 26.7662 2 7 3
17.4478 26.7533 26.7533 2 7 3
17.4326 26.7404 26.7404 2 7 3
17.4173 26.7275 26.7275 2 7 3
17.4021 26.7146 26.7146 2 7 3
17.3868 26.7017 26.7017 2 7 3
17.3716 26.6887 26.6887 2 7 3
17.3563 26.6758 26.6758 2 7 3
17.3411 26.6629 26.6629 2 7 3
17.3258 26.6499 26.6499 2 7 3
17.3106 26.637 26.637 2 7 3
17.2954 26.6241 26.6241 2 7 3
17.2802 26.6111 26.6111 2 7 3
17.265 26.5982 26.5982 2 7 3
17.2497 26.5852 26.5852 2 7 3
17.2345 26.5722 26.5722 2 7 3
17.2193 26.5593 26.5593 2 7 3
17.2041 26.5463 26.5463 2 7 3
17.1889 26.5333 26.5333 2 7 3
17.1738 26.5203 26.5203 2 7 3
17.1586 26.5073 26.5073 2 7 3
17.1434 26.4943 26.4943 2 7 3
17.1282 26.4813 26.4813 2 7 3
17.113 26.4683 26.4683 2 7 3
17.0979 26.4553 26.4553 2 7 3
17.0827 26.4423 26.4423 2 7 3
17.0676 26.4293 26.4293 2 7 3
17.0524 26.4162 26.4162 2 7 3
17.0372 26.4032 26.4032 2 7 3
17.0221 26.3902 26.3902 2 7 3
17.007 26.3771 26.3771 2 7 3
16.9918 26.3641 26.3641 2 7 3
16.9767 26.351 26.351 2 7 3
16.9616 26.338 26.338 2 7 3
16.9464 26.3249 26.3249 2 7 3
16.9313 26.3119 26.3119 2 7 3
16.9162 26.2988 26.2988 2 7 3
16.9011 26.2857 26.2857 2 7 3
16.886 26.2726 26.2726 2 7 3
16.8709 26.2595 26.2595 2 7 3
16.8558 26.2464 26.2464 2 7 3
16.8407 26.2333 26.2333 2 7 3
16.8256 26.2202 26.2202 2 7 3
16.8105 26.2071 26.2071 2 7 3
16.7955 26.194 26.194 2 7 3
16.7804 26.1809 26.1809 2 7 3
16.7653 26.1678 26.1678 2 7 3
16.7503 26.1546 26.1546 2 7 3
16.7352 26.1415 26.1415 2 7 3
16.7201 26.1284 26.1284 2 7 3
16.7051 26.1152 26.1152 2 7 3
16.69 26.1021 26.1021 2 7 3
16.675 26.0889 26.0889 2 7 3
16.66 26.0758 26.0758 2 7 3
16.6449 26.0626 26.0626 2 7 3
16.6299 26.0494 26.0494 2 7 3
16.6149 26.0362 26.0362 2 7 3
19.7053 28.57 28.57 2 7 3
19.6736 28.5457 28.5457 2 7 3
19.6578 28.5335 28.5335 2 7 3
19.6419 28.5213 28.5213 2 7 3
19.6261 28.5091 28.5091 2 7 3
19.6102 28.4969 28.4969 2 7 3
19.5944 28.4847 28.4847 2 7 3
19.5786 28.4725 28.4725 2 7 3
19.5628 28.4603 28.4603 2 7 3
19.5469 28.4481 28.4481 2 7 3
19.5311 28.4359 28.4359 2 7 3
19.5153 28.4237 28.4237 2 7 3
19.4995 28.4114 28.4114 2 7 3
19.4837 28.3992 28.3992 2 7 3
19.4679 28.387 28.387 2 7 3
19.4521 28.3747 28.3747 2 7 3
19.4363 28.3625 28.3625 2 7 3
19.4205 28.3502 28.3502 2 7 3
19.4047 28.338 28.338 2 7 3
19.3889 28.3257 28.3257 2 7 3
19.3731 28.3134 28.3134 2 7 3
19.3574 28.3012 28.3012 2 7 3
19.3416 28.2889 28.2889 2 7 3
19.3258 28.2766 28.2766 2 7 3
19.3101 28.2643 28.2643 2 7 3
19.2943 28.252 28.252 2 7 3
19.2785 28.2397 28.2397 2 7 3
19.2628 28.2274 28.2274 2 7 3
19.247 28.2151 28.2151 2 7 3
19.2313 28.2028 28.2028 2 7 3
19.2156 28.1905 28.1905 2 7 3
19.1998 28.1782 28.1782 2 7 3
19.1841 28.1658 28.1658 2 7 3
19.1684 28.1535 28.1535 2 7 3
19.1526 28.1412 28.1412 2 7 3
19.1369 28.1288 28.1288 2 7 3
19.1212 28.1165 28.1165 2 7 3
19.1055 28.1041 28.1041 2 7 3
19.0898 28.0918 28.0918 2 7 3
19.0741 28.0794 28.0794 2 7 3
19.0584 28.067 28.067 2 7 3
19.0427 28.0547 28.0547 2 7 3
19.027 28.0423 28.0423 2 7 3
19.0113 28.0299 28.0299 2 7 3
18.9956 28.0175 28.0175 2 7 3
18.9799 28.0051 28.0051 2 7 3
18.9642 27.9927 27.9927 2 7 3
18.9486 27.9803 27.9803 2 7 3
18.9329 27.9679 27.9679 2 7 3
18.9172 27.9555 27.9555 2 7 3
18.9016 27.9431 27.9431 2 7 3
18.8859 27.9307 27.9307 2 7 3
18.8703 27.9182 27.9182 2 7 3
18.8546 27.9058 27.9058 2 7 3
18.839 27.8934 27.8934 2 7 3
18.8233 27.8809 27.8809 2 7 3
18.8077 27.8685 27.8685 2 7 3
18.7921 27.856 27.856 2 7 3
18.7764 27.8436 27.8436 2 7 3
18.7608 27.8311 27.8311 2 7 3
18.7452 27.8186 27.8186 2 7 3
18.7296 27.8062 27.8062 2 7 3
18.714 27.7937 27.7937 2 7 3
18.6984 27.7812 27.7812 2 7 3
18.6827 27.7687 27.7687 2 7 3
18.6671 27.7562 27.7562 2 7 3
18.6515 27.7437 27.7437 2 7 3
18.636 27.7312 27.7312 2 7 3
18.6204 27.7187 27.7187 2 7 3
18.6048 27.7062 27.7062 2 7 3
18.5892 27.6937 27.6937 2 7 3
18.5736 27.6812 27.6812 2 7 3
18.5581 27.6686 27.6686 2 7 3
18.5425 27.6561 27.6561 2 7 3
18.5269 27.6436 27.6436 2 7 3
18.5114 27.631 27.631 2 7 3
18.4958 27.6185 27.6185 2 7 3
18.4803 27.6059 27.6059 2 7 3
18.4647 27.5933 27.5933 2 7 3
18.4492 27.5808 27.5808 2 7 3
18.4336 27.5682 27.5682 2 7 3
18.4181 27.5556 27.5556 2 7 3
18.4026 27.5431 27.5431 2 7 3
18.387 27.5305 27.5305 2 7 3
18.3715 27.5179 27.5179 2 7 3
18.356 27.5053 27.5053 2 7 3
18.3405 27.4927 27.4927 2 7 3
18.325 27.4801 27.4801 2 7 3
18.3095 27.4675 27.4675 2 7 3
18.294 27.4549 27.4549 2 7 3
18.2785 27.4423 27.4423 2 7 3
18.263 27.4296 27.4296 2 7 3
18.2475 27.417 27.417 2 7 3
18.232 27.4044 27.4044 2 7 3
18.2165 27.3917 27.3917 2 7 3
18.201 27.3791 27.3791 2 7 3
18.1856 27.3664 27.3664 2 7 3
18.1701 27.3538 27.3538 2 7 3
18.1546 27.3411 27.3411 2 7 3
18.1392 27.3285 27.3285 2 7 3
18.1237 27.3158 27.3158 2 7 3
18.1083 27.3031 27.3031 2 7 3
18.0928 27.2904 27.2904 2 7 3
18.0774 27.2777 27.2777 2 7 3
18.0619 27.2651 27.2651 2 7 3
18.0465 27.2524 27.2524 2 7 3
18.0311 27.2397 27.2397 2 7 3
18.0156 27.227 27.227 2 7 3
18.0002 27.2142 27.2142 2 7 3
17.9848 27.2015 27.2015 2 7 3
17.9694 27.1888 27.1888 2 7 3
17.954 27.1761 27.1761 2 7 3
17.9386 27.1633 27.1633 2 7 3
17.9232 27.1506 27.1506 2 7 3
17.9078 27.1379 27.1379 2 7 3
17.8924 27.1251 27.1251 2 7 3
17.877 27.1124 27.1124 2 7 3
17.8616 27.0996 27.0996 2 7 3
17.8462 27.0869 27.0869 2 7 3
17.8308 27.0741 27.0741 2 7 3
17.8155 27.0613 27.0613 2 7 3
17.8001 27.0485 27.0485 2 7 3
17.7847 27.0358 27.0358 2 7 3
17.7694 27.023 27.023 2 7 3
17.754 27.0102 27.0102 2 7 3
17.7387 26.9974 26.9974 2 7 3
17.7233 26.9846 26.9846 2 7 3
17.708 26.9718 26.9718 2 7 3
17.6926 26.959 26.959 2 7 3
17.6773 26.9462 26.9462 2 7 3
17.662 26.9333 26.9333 2 7 3
17.6467 26.9205 26.9205 2 7 3
17.6313 26.9077 26.9077 2 7 3
17.616 26.8948 26.8948 2 7 3
17.6007 26.882 26.882 2 7 3
17.5854 26.8691 26.8691 2 7 3
17.5701 26.8563 26.8563 2 7 3
17.5548 26.8434 26.8434 2 7 3
17.5395 26.8306 26.8306 2 7 3
17.5242 26.8177 26.8177 2 7 3
17.5089 26.8048 26.8048 2 7 3
17.4937 26.7919 26.7919 2 7 3
17.4784 26.7791 26.7791 2 7 3
17.4631 26.7662 26.7662 2 7 3
17.4478 26.7533 26.7533 2 7 3
17.4326 26.7404 26.7404 2 7 3
17.4173 26.7275 26.7275 2 7 3
17.4021 26.7146 26.7146 2 7 3
17.3868 26.7017 26.7017 2 7 3
17.3716 26.6887 26.6887 2 7 3
17.3563 26.6758 26.6758 2 7 3
17.3411 26.6629 26.6629 2 7 3
17.3258 26.6499 26.6499 2 7 3
17.3106 26.637 26.637 2 7 3
17.2954 26.6241 26.6241 2 7 3
17.2802 26.6111 26.6111 2 7 3
17.265 26.5982 26.5982 2 7 3
17.2497 26.5852 26.5852 2 7 3
17.2345 26.5722 26.5722 2 7 3
17.2193 26.5593 26.5593 2 7 3
17.2041 26.5463 26.5463 2 7 3
17.1889 26.5333 26.5333 2 7 3
17.1738 26.5203 26.5203 2 7 3
17.1586 26.5073 26.5073 2 7 3
17.1434 26.4943 26.4943 2 7 3
17.1282 26.4813 26.4813 2 7 3
17.113 26.4683 26.4683 2 7 3
17.0979 26.4553 26.4553 2 7 3
17.0827 26.4423 26.4423 2 7 3
17.0676 26.4293 26.4293 2 7 3
17.0524 26.4162 26.4162 2 7 3
17.0372 26.4032 26.4032 2 7 3
17.0221 26.3902 26.3902 2 7 3
17.007 26.3771 26.3771 2 7 3
16.9918 26.3641 26.3641 2 7 3
16.9767 26.351 26.351 2 7 3
16.9616 26.338 26.338 2 7 3
16.9464 26.3249 26.3249 2 7 3
16.9313 26.3119 26.3119 2 7 3
16.9162 26.2988 26.2988 2 7 3
16.9011 26.2857 26.2857 2 7 3
16.886 26.2726 26.2726 2 7 3
16.8709 26.2595 26.2595 2 7 3
16.8558 26.2464 26.2464 2 7 3
16.8407 26.2333 26.2333 2 7 3
16.8256 26.2202 26.2202 2 7 3
16.8105 26.2071 26.2071 2 7 3
16.7955 26.194 26.194 2 7 3
16.7804 26.1809 26.1809 2 7 3
16.7653 26.1678 26.1678 2 7 3
16.7503 26.1546 26.1546 2 7 3
16.7352 26.1415 26.1415 2 7 3
16.7201 26.1284 26.1284 2 7 3
16.7051 26.1152 26.1152 2 7 3
16.69 26.1021 26.1021 2 7 3
16.675 26.0889 26.0889 2 7 3
16.66 26.0758 26.0758 2 7 3
16.6449 26.0626 26.0626 2 7 3
16.6299 26.0494 26.0494 2 7 3
16.6149 26.0362 26.0362 2 7 3
19.7053 28.57 28.57 2 7 3
19.7371 28.5943 28.5943 2 7 3
19.7529 28.6065 28.6065 2 7 3
19.7688 28.6186 28.6186 2 7 3
19.7847 28.6308 28.6308 2 7 3
19.8006 28.6429 28.6429 2 7 3
19.8164 28.655 28.655 2 7 3
19.8323 28.6672 28.6672 2 7 3
19.8482 28.6793 28.6793 2 7 3
19.8641 28.6914 28.6914 2 7 3
19.88 28.7035 28.7035 2 7 3
19.8959 28.7156 28.7156 2 7 3
19.9118 28.7277 28.7277 2 7 3
19.9277 28.7398 28.7398 2 7 3
19.9436 28.7519 28.7519 2 7 3
19.9596 28.764 28.764 2 7 3
19.9755 28.7761 28.7761 2 7 3
19.9914 28.7882 28.7882 2 7 3
20.0073 28.8003 28.8003 2 7 3
20.0233 28.8123 28.8123 2 7 3
20.0392 28.8244 28.8244 2 7 3
20.0551 28.8365 28.8365 2 7 3
20.0711 28.8485 28.8485 2 7 3
20.087 28.8606 28.8606 2 7 3
20.103 28.8726 28.8726 2 7 3
20.1189 28.8846 28.8846 2 7 3
20.1349 28.8967 28.8967 2 7 3
20.1509 28.9087 28.9087 2 7 3
20.1668 28.9207 28.9207 2 7 3
20.1828 28.9328 28.9328 2 7 3
20.1988 28.9448 28.9448 2 7 3
20.2148 28.9568 28.9568 2 7 3
20.2307 28.9688 28.9688 2 7 3
20.2467 28.9808 28.9808 2 7 3
20.2627 28.9928 28.9928 2 7 3
20.2787 29.0048 29.0048 2 7 3
20.2947 29.0168 29.0168 2 7 3
20.3107 29.0287 29.0287 2 7 3
20.3267 29.0407 29.0407 2 7 3
20.3427 29.0527 29.0527 2 7 3
20.3587 29.0647 29.0647 2 7 3
20.3747 29.0766 29.0766 2 7 3
20.3908 29.0886 29.0886 2 7 3
20.4068 29.1005 29.1005 2 7 3
20.4228 29.1125 29.1125 2 7 3
20.4388 29.1244 29.1244 2 7 3
20.4549 29.1364 29.1364 2 7 3
20.4709 29.1483 29.1483 2 7 3
20.4869 29.1602 29.1602 2 7 3
20.503 29.1721 29.1721 2 7 3
20.519 29.184 29.184 2 7 3
20.5351 29.196 29.196 2 7 3
20.5511 29.2079 29.2079 2 7 3
20.5672 29.2198 29.2198 2 7 3
20.5833 29.2317 29.2317 2 7 3
20.5993 29.2436 29.2436 2 7 3
20.6154 29.2555 29.2555 2 7 3
20.6315 29.2673 29.2673 2 7 3
20.6475 29.2792 29.2792 2 7 3
20.6636 29.2911 29.2911 2 7 3
20.6797 29.303 29.303 2 7 3
20.6958 29.3148 29.3148 2 7 3
20.7119 29.3267 29.3267 2 7 3
20.728 29.3385 29.3385 2 7 3
20.7441 29.3504 29.3504 2 7 3
20.7602 29.3622 29.3622 2 7 3
20.7763 29.3741 29.3741 2 7 3
20.7924 29.3859 29.3859 2 7 3
20.8085 29.3977 29.3977 2 7 3
20.8246 29.4096 29.4096 2 7 3
20.8408 29.4214 29.4214 2 7 3
20.8569 29.4332 29.4332 2 7 3
20.873 29.445 29.445 2 7 3
20.8891 29.4568 29.4568 2 7 3
20.9053 29.4686 29.4686 2 7 3
20.9214 29.4804 29.4804 2 7 3
20.9375 29.4922 29.4922 2 7 3
20.9537 29.504 29.504 2 7 3
20.9698 29.5158 29.5158 2 7 3
20.986 29.5275 29.5275 2 7 3
21.0021 29.5393 29.5393 2 7 3
21.0183 29.5511 29.5511 2 7 3
21.0345 29.5628 29.5628 2 7 3
21.0506 29.5746 29.5746 2 7 3
21.0668 29.5863 29.5863 2 7 3
21.083 29.5981 29.5981 2 7 3
21.0992 29.6098 29.6098 2 7 3
21.1153 29.6216 29.6216 2 7 3
21.1315 29.6333 29.6333 2 7 3
21.1477 29.645 29.645 2 7 3
21.1639 29.6568 29.6568 2 7 3
21.1801 29.6685 29.6685 2 7 3
21.1963 29.6802 29.6802 2 7 3
21.2125 29.6919 29.6919 2 7 3
21.2287 29.7036 29.7036 2 7 3
21.2449 29.7153 29.7153 2 7 3
21.2611 29.727 29.727 2 7 3
21.2773 29.7387 29.7387 2 7 3
21.2936 29.7504 29.7504 2 7 3
21.3098 29.7621 29.7621 2 7 3
21.326 29.7737 29.7737 2 7 3
21.3422 29.7854 29.7854 2 7 3
21.3585 29.7971 29.7971 2 7 3
21.3747 29.8087 29.8087 2 7 3
21.3909 29.8204 29.8204 2 7 3
21.4072 29.832 29.832 2 7 3
21.4234 29.8437 29.8437 2 7 3
21.4397 29.8553 29.8553 2 7 3
21.4559 29.867 29.867 2 7 3
21.4722 29.8786 29.8786 2 7 3
21.4884 29.8902 29.8902 2 7 3
21.5047 29.9018 29.9018 2 7 3
21.521 29.9135 29.9135 2 7 3
21.5373 29.9251 29.9251 2 7 3
21.5535 29.9367 29.9367 2 7 3
21.5698 29.9483 29.9483 2 7 3
21.5861 29.9599 29.9599 2 7 3
21.6024 29.9715 29.9715 2 7 3
21.6187 29.9831 29.9831 2 7 3
21.6349 29.9946 29.9946 2 7 3
21.6512 30.0062 30.0062 2 7 3
21.6675 30.0178 30.0178 2 7 3
21.6838 30.0294 30.0294 2 7 3
21.7001 30.0409 30.0409 2 7 3
21.7165 30.0525 30.0525 2 7 3
21.7328 30.064 30.064 2 7 3
21.7491 30.0756 30.0756 2 7 3
21.7654 30.0871 30.0871 2 7 3
21.7817 30.0987 30.0987 2 7 3
21.798 30.1102 30.1102 2 7 3
21.8144 30.1218 30.1218 2 7 3
21.8307 30.1333 30.1333 2 7 3
21.847 30.1448 30.1448 2 7 3
21.8634 30.1563 30.1563 2 7 3
21.8797 30.1678 30.1678 2 7 3
21.8961 30.1793 30.1793 2 7 3
21.9124 30.1908 30.1908 2 7 3
21.9288 30.2023 30.2023 2 7 3
21.9451 30.2138 30.2138 2 7 3
21.9615 30.2253 30.2253 2 7 3
21.9778 30.2368 30.2368 2 7 3
21.9942 30.2483 30.2483 2 7 3
22.0106 30.2598 30.2598 2 7 3
22.027 30.2712 30.2712 2 7 3
22.0433 30.2827 30.2827 2 7 3
22.0597 30.2942 30.2942 2 7 3
22.0761 30.3056 30.3056 2 7 3
22.0925 30.3171 30.3171 2 7 3
22.1089 30.3285 30.3285 2 7 3
22.1253 30.34 30.34 2 7 3
22.1417 30.3514 30.3514 2 7 3
22.1581 30.3628 30.3628 2 7 3
22.1745 30.3743 30.3743 2 7 3
22.1909 30.3857 30.3857 2 7 3
22.2073 30.3971 30.3971 2 7 3
22.2237 30.4085 30.4085 2 7 3
22.2401 30.4199 30.4199 2 7 3
22.2565 30.4313 30.4313 2 7 3
22.2729 30.4427 30.4427 2 7 3
22.2894 30.4541 30.4541 2 7 3
22.3058 30.4655 30.4655 2 7 3
22.3222 30.4769 30.4769 2 7 3
22.3387 30.4883 30.4883 2 7 3
22.3551 30.4996 30.4996 2 7 3
22.3715 30.511 30.511 2 7 3
22.388 30.5224 30.5224 2 7 3
22.4044 30.5337 30.5337 2 7 3
22.4209 30.5451 30.5451 2 7 3
22.4373 30.5564 30.5564 2 7 3
22.4538 30.5678 30.5678 2 7 3
22.4703 30.5791 30.5791 2 7 3
22.4867 30.5905 30.5905 2 7 3
22.5032 30.6018 30.6018 2 7 3
22.5197 30.6131 30.6131 2 7 3
22.5361 30.6245 30.6245 2 7 3
22.5526 30.6358 30.6358 2 7 3
22.5691 30.6471 30.6471 2 7 3
22.5856 30.6584 30.6584 2 7 3
22.6021 30.6697 30.6697 2 7 3
22.6186 30.681 30.681 2 7 3
22.635 30.6923 30.6923 2 7 3
22.6515 30.7036 30.7036 2 7 3
22.668 30.7149 30.7149 2 7 3
22.6845 30.7262 30.7262 2 7 3
22.7011 30.7374 30.7374 2 7 3
22.7176 30.7487 30.7487 2 7 3
22.7341 30.76 30.76 2 7 3
22.7506 30.7713 30.7713 2 7 3
22.7671 30.7825 30.7825 2 7 3
22.7836 30.7938 30.7938 2 7 3
22.8002 30.805 30.805 2 7 3
22.8167 30.8163 30.8163 2 7 3
22.8332 30.8275 30.8275 2 7 3
22.8498 30.8387 30.8387 2 7 3
22.8663 30.85 30.85 2 7 3
22.8828 30.8612 30.8612 2 7 3
22.8994 30.8724 30.8724 2 7 3
22.9159 30.8836 30.8836 2 7 3
22.9325 30.8948 30.8948 2 7 3
22.949 30.906 30.906 2 7 3
19.7053 28.57 28.57 2 7 3
19.7371 28.5943 28.5943 2 7 3
19.7529 28.6065 28.6065 2 7 3
19.7688 28.6186 28.6186 2 7 3
19.7847 28.6308 28.6308 2 7 3
19.8006 28.6429 28.6429 2 7 3
19.8164 28.655 28.655 2 7 3
19.8323 28.6672 28.6672 2 7 3
19.8482 28.6793 28.6793 2 7 3
19.8641 28.6914 28.6914 2 7 3
19.88 28.7035 28.7035 2 7 3
19.8959 28.7156 28.7156 2 7 3
19.9118 28.7277 28.7277 2 7 3
19.9277 28.7398 28.7398 2 7 3
19.9436 28.7519 28.7519 2 7 3
19.9596 28.764 28.764 2 7 3
19.9755 28.7761 28.7761 2 7 3
19.9914 28.7882 28.7882 2 7 3
20.0073 28.8003 28.8003 2 7 3
20.0233 28.8123 28.8123 2 7 3
20.0392 28.8244 28.8244 2 7 3
20.0551 28.8365 28.8365 2 7 3
20.0711 28.8485 28.8485 2 7 3
20.087 28.8606 28.8606 2 7 3
20.103 28.8726 28.8726 2 7 3
20.1189 28.8846 28.8846 2 7 3
20.1349 28.8967 28.8967 2 7 3
20.1509 28.9087 28.9087 2 7 3
20.1668 28.9207 28.9207 2 7 3
20.1828 28.9328 28.9328 2 7 3
20.1988 28.9448 28.9448 2 7 3
20.2148 28.9568 28.9568 2 7 3
20.2307 28.9688 28.9688 2 7 3
20.2467 28.9808 28.9808 2 7 3
20.2627 28.9928 28.9928 2 7 3
20.2787 29.0048 29.0048 2 7 3
20.2947 29.0168 29.0168 2 7 3
20.3107 29.0287 29.0287 2 7 3
20.3267 29.0407 29.0407 2 7 3
20.3427 29.0527 29.0527 2 7 3
20.3587 29.0647 29.0647 2 7 3
20.3747 29.0766 29.0766 2 7 3
20.3908 29.0886 29.0886 2 7 3
20.4068 29.1005 29.1005 2 7 3
20.4228 29.1125 29.1125 2 7 3
20.4388 29.1244 29.1244 2 7 3
20.4549 29.1364 29.1364 2 7 3
20.4709 29.1483 29.1483 2 7 3
20.4869 29.1602 29.1602 2 7 3
20.503 29.1721 29.1721 2 7 3
20.519 29.184 29.184 2 7 3
20.5351 29.196 29.196 2 7 3
20.5511 29.2079 29.2079 2 7 3
20.5672 29.2198 29.2198 2 7 3
20.5833 29.2317 29.2317 2 7 3
20.5993 29.2436 29.2436 2 7 3
20.6154 29.2555 29.2555 2 7 3
20.6315 29.2673 29.2673 2 7 3
20.6475 29.2792 29.2792 2 7 3
20.6636 29.2911 29.2911 2 7 3
20.6797 29.303 29.303 2 7 3
20.6958 29.3148 29.3148 2 7 3
20.7119 29.3267 29.3267 2 7 3
20.728 29.3385 29.3385 2 7 3
20.7441 29.3504 29.3504 2 7 3
20.7602 29.3622 29.3622 2 7 3
20.7763 29.3741 29.3741 2 7 3
20.7924 29.3859 29.3859 2 7 3
20.8085 29.3977 29.3977 2 7 3
20.8246 29.4096 29.4096 2 7 3
20.8408 29.4214 29.4214 2 7 3
20.8569 29.4332 29.4332 2 7 3
20.873 29.445 29.445 2 7 3
20.8891 29.4568 29.4568 2 7 3
20.9053 29.4686 29.4686 2 7 3
20.9214 29.4804 29.4804 2 7 3
20.9375 29.4922 29.4922 2 7 3
20.9537 29.504 29.504 2 7 3
20.9698 29.5158 29.5158 2 7 3
20.986 29.5275 29.5275 2 7 3
21.0021 29.5393 29.5393 2 7 3
21.0183 29.5511 29.5511 2 7 3
21.0345 29.5628 29.5628 2 7 3
21.0506 29.5746 29.5746 2 7 3
21.0668 29.5863 29.5863 2 7 3
21.083 29.5981 29.5981 2 7 3
21.0992 29.6098 29.6098 2 7 3
21.1153 29.6216 29.6216 2 7 3
21.1315 29.6333 29.6333 2 7 3
21.1477 29.645 29.645 2 7 3
21.1639 29.6568 29.6568 2 7 3
21.1801 29.6685 29.6685 2 7 3
21.1963 29.6802 29.6802 2 7 3
21.2125 29.6919 29.6919 2 7 3
21.2287 29.7036 29.7036 2 7 3
21.2449 29.7153 29.7153 2 7 3
21.2611 29.727 29.727 2 7 3
21.2773 29.7387 29.7387 2 7 3
21.2936 29.7504 29.7504 2 7 3
21.3098 29.7621 29.7621 2 7 3
21.326 29.7737 29.7737 2 7 3
21.3422 29.7854 29.7854 2 7 3
21.3585 29.7971 29.7971 2 7 3
21.3747 29.8087 29.8087 2 7 3
21.3909 29.8204 29.8204 2 7 3
21.4072 29.832 29.832 2 7 3
21.4234 29.8437 29.8437 2 7 3
21.4397 29.8553 29.8553 2 7 3
21.4559 29.867 29.867 2 7 3
21.4722 29.8786 29.8786 2 7 3
21.4884 29.8902 29.8902 2 7 3
21.5047 29.9018 29.9018 2 7 3
21.521 29.9135 29.9135 2 7 3
21.5373 29.9251 29.9251 2 7 3
21.5535 29.9367 29.9367 2 7 3
21.5698 29.9483 29.9483 2 7 3
21.5861 29.9599 29.9599 2 7 3
21.6024 29.9715 29.9715 2 7 3
21.6187 29.9831 29.9831 2 7 3
21.6349 29.9946 29.9946 2 7 3
21.6512 30.0062 30.0062 2 7 3
21.6675 30.0178 30.0178 2 7 3
21.6838 30.0294 30.0294 2 7 3
21.7001 30.0409 30.0409 2 7 3
21.7165 30.0525 30.0525 2 7 3
21.7328 30.064 30.064 2 7 3
21.7491 30.0756 30.0756 2 7 3
21.7654 30.0871 30.0871 2 7 3
21.7817 30.0987 30.0987 2 7 3
21.798 30.1102 30.1102 2 7 3
21.8144 30.1218 30.1218 2 7 3
21.8307 30.1333 30.1333 2 7 3
21.847 30.1448 30.1448 2 7 3
21.8634 30.1563 30.1563 2 7 3
21.8797 30.1678 30.1678 2 7 3
21.8961 30.1793 30.1793 2 7 3
21.9124 30.1908 30.1908 2 7 3
21.9288 30.2023 30.2023 2 7 3
21.9451 30.2138 30.2138 2 7 3
21.9615 30.2253 30.2253 2 7 3
21.9778 30.2368 30.2368 2 7 3
21.9942 30.2483 30.2483 2 7 3
22.0106 30.2598 30.2598 2 7 3
22.027 30.2712 30.2712 2 7 3
22.0433 30.2827 30.2827 2 7 3
22.0597 30.2942 30.2942 2 7 3
22.0761 30.3056 30.3056 2 7 3
22.0925 30.3171 30.3171 2 7 3
22.1089 30.3285 30.3285 2 7 3
22.1253 30.34 30.34 2 7 3
22.1417 30.3514 30.3514 2 7 3
22.1581 30.3628 30.3628 2 7 3
22.1745 30.3743 30.3743 2 7 3
22.1909 30.3857 30.3857 2 7 3
22.2073 30.3971 30.3971 2 7 3
22.2237 30.4085 30.4085 2 7 3
22.2401 30.4199 30.4199 2 7 3
22.2565 30.4313 30.4313 2 7 3
22.2729 30.4427 30.4427 2 7 3
22.2894 30.4541 30.4541 2 7 3
22.3058 30.4655 30.4655 2 7 3
22.3222 30.4769 30.4769 2 7 3
22.3387 30.4883 30.4883 2 7 3
22.3551 30.4996 30.4996 2 7 3
22.3715 30.511 30.511 2 7 3
22.388 30.5224 30.5224 2 7 3
22.4044 30.5337 30.5337 2 7 3
22.4209 30.5451 30.5451 2 7 3
22.4373 30.5564 30.5564 2 7 3
22.4538 30.5678 30.5678 2 7 3
22.4703 30.5791 30.5791 2 7 3
22.4867 30.5905 30.5905 2 7 3
22.5032 30.6018 30.6018 2 7 3
22.5197 30.6131 30.6131 2 7 3
22.5361 30.6245 30.6245 2 7 3
22.5526 30.6358 30.6358 2 7 3
22.5691 30.6471 30.6471 2 7 3
22.5856 30.6584 30.6584 2 7 3
22.6021 30.6697 30.6697 2 7 3
22.6186 30.681 30.681 2 7 3
22.635 30.6923 30.6923 2 7 3
22.6515 30.7036 30.7036 2 7 3
22.668 30.7149 30.7149 2 7 3
22.6845 30.7262 30.7262 2 7 3
22.7011 30.7374 30.7374 2 7 3
22.7176 30.7487 30.7487 2 7 3
22.7341 30.76 30.76 2 7 3
22.7506 30.7713 30.7713 2 7 3
22.7671 30.7825 30.7825 2 7 3
22.7836 30.7938 30.7938 2 7 3
22.8002 30.805 30.805 2 7 3
22.8167 30.8163 30.8163 2 7 3
22.8332 30.8275 30.8275 2 7 3
22.8498 30.8387 30.8387 2 7 3
22.8663 30.85 30.85 2 7 3
22.8828 30.8612 30.8612 2 7 3
22.8994 30.8724 30.8724 2 7 3
22.9159 30.8836 30.8836 2 7 3
22.9325 30.8948 30.8948 2 7 3
22.949 30.906 30.906 2 7 3
19.7053 0.14 0.14 2 7 3
19.7416 0.156899 0.156899 2 7 3
19.7597 0.165356 0.165356 2 7 3
19.7778 0.173819 0.173819 2 7 3
19.7959 0.182287 0.182287 2 7 3
19.814 0.190759 0.190759 2 7 3
19.8321 0.199236 0.199236 2 7 3
19.8502 0.207718 0.207718 2 7 3
19.8683 0.216204 0.216204 2 7 3
19.8864 0.224696 0.224696 2 7 3
19.9045 0.233192 0.233192 2 7 3
19.9225 0.241692 0.241692 2 7 3
19.9406 0.250197 0.250197 2 7 3
19.9587 0.258707 0.258707 2 7 3
19.9768 0.267222 0.267222 2 7 3
19.9949 0.275741 0.275741 2 7 3
20.013 0.284265 0.284265 2 7 3
20.031 0.292793 0.292793 2 7 3
20.0491 0.301326 0.301326 2 7 3
20.0672 0.309864 0.309864 2 7 3
20.0852 0.318406 0.318406 2 7 3
20.1033 0.326954 0.326954 2 7 3
20.1214 0.335505 0.335505 2 7 3
20.1394 0.344061 0.344061 2 7 3
20.1575 0.352622 0.352622 2 7 3
20.1756 0.361187 0.361187 2 7 3
20.1936 0.369757 0.369757 2 7 3
20.2117 0.378332 0.378332 2 7 3
20.2297 0.386911 0.386911 2 7 3
20.2478 0.395494 0.395494 2 7 3
20.2658 0.404082 0.404082 2 7 3
20.2839 0.412675 0.412675 2 7 3
20.3019 0.421272 0.421272 2 7 3
20.3199 0.429874 0.429874 2 7 3
20.338 0.43848 0.43848 2 7 3
20.356 0.447091 0.447091 2 7 3
20.3741 0.455706 0.455706 2 7 3
20.3921 0.464326 0.464326 2 7 3
20.4101 0.47295 0.47295 2 7 3
20.4281 0.481578 0.481578 2 7 3
20.4462 0.490212 0.490212 2 7 3
20.4642 0.498849 0.498849 2 7 3
20.4822 0.507491 0.507491 2 7 3
20.5002 0.516138 0.516138 2 7 3
20.5183 0.524789 0.524789 2 7 3
20.5363 0.533444 0.533444 2 7 3
20.5543 0.542104 0.542104 2 7 3
20.5723 0.550768 0.550768 2 7 3
20.5903 0.559437 0.559437 2 7 3
20.6083 0.56811 0.56811 2 7 3
20.6263 0.576787 0.576787 2 7 3
20.6443 0.585469 0.585469 2 7 3
20.6623 0.594155 0.594155 2 7 3
20.6803 0.602846 0.602846 2 7 3
20.6983 0.611541 0.611541 2 7 3
20.7163 0.62024 0.62024 2 7 3
20.7343 0.628944 0.628944 2 7 3
20.7523 0.637652 0.637652 2 7 3
20.7703 0.646364 0.646364 2 7 3
20.7883 0.655081 0.655081 2 7 3
20.8063 0.663802 0.663802 2 7 3
20.8242 0.672528 0.672528 2 7 3
20.8422 0.681258 0.681258 2 7 3
20.8602 0.689992 0.689992 2 7 3
20.8782 0.69873 0.69873 2 7 3
20.8962 0.707473 0.707473 2 7 3
20.9141 0.71622 0.71622 2 7 3
20.9321 0.724971 0.724971 2 7 3
20.9501 0.733727 0.733727 2 7 3
20.968 0.742486 0.742486 2 7 3
20.986 0.751251 0.751251 2 7 3
21.004 0.760019 0.760019 2 7 3
21.0219 0.768792 0.768792 2 7 3
21.0399 0.777569 0.777569 2 7 3
21.0578 0.78635 0.78635 2 7 3
21.0758 0.795135 0.795135 2 7 3
21.0937 0.803925 0.803925 2 7 3
21.1117 0.812718 0.812718 2 7 3
21.1296 0.821517 0.821517 2 7 3
21.1476 0.830319 0.830319 2 7 3
21.1655 0.839125 0.839125 2 7 3
21.1835 0.847936 0.847936 2 7 3
21.2014 0.856751 0.856751 2 7 3
21.2193 0.86557 0.86557 2 7 3
21.2373 0.874393 0.874393 2 7 3
21.2552 0.88322 0.88322 2 7 3
21.2731 0.892052 0.892052 2 7 3
21.2911 0.900888 0.900888 2 7 3
21.309 0.909728 0.909728 2 7 3
21.3269 0.918572 0.918572 2 7 3
21.3448 0.92742 0.92742 2 7 3
21.3628 0.936272 0.936272 2 7 3
21.3807 0.945129 0.945129 2 7 3
21.3986 0.953989 0.953989 2 7 3
21.4165 0.962854 0.962854 2 7 3
21.4344 0.971723 0.971723 2 7 3
21.4523 0.980596 0.980596 2 7 3
21.4703 0.989473 0.989473 2 7 3
21.4882 0.998354 0.998354 2 7 3
21.5061 1.00724 1.00724 2 7 3
21.524 1.01613 1.01613 2 7 3
21.5419 1.02502 1.02502 2 7 3
21.5598 1.03392 1.03392 2 7 3
21.5777 1.04282 1.04282 2 7 3
21.5956 1.05173 1.05173 2 7 3
21.6135 1.06064 1.06064 2 7 3
21.6313 1.06955 1.06955 2 7 3
21.6492 1.07847 1.07847 2 7 3
21.6671 1.08739 1.08739 2 7 3
21.685 1.09631 1.09631 2 7 3
21.7029 1.10524 1.10524 2 7 3
21.7208 1.11418 1.11418 2 7 3
21.7387 1.12312 1.12312 2 7 3
21.7565 1.13206 1.13206 2 7 3
21.7744 1.141 1.141 2 7 3
21.7923 1.14995 1.14995 2 7 3
21.8101 1.15891 1.15891 2 7 3
21.828 1.16787 1.16787 2 7 3
21.8459 1.17683 1.17683 2 7 3
21.8637 1.18579 1.18579 2 7 3
21.8816 1.19476 1.19476 2 7 3
21.8995 1.20374 1.20374 2 7 3
21.9173 1.21271 1.21271 2 7 3
21.9352 1.2217 1.2217 2 7 3
21.953 1.23068 1.23068 2 7 3
21.9709 1.23967 1.23967 2 7 3
21.9888 1.24866 1.24866 2 7 3
22.0066 1.25766 1.25766 2 7 3
22.0244 1.26666 1.26666 2 7 3
22.0423 1.27567 1.27567 2 7 3
22.0601 1.28468 1.28468 2 7 3
22.078 1.29369 1.29369 2 7 3
22.0958 1.30271 1.30271 2 7 3
22.1137 1.31173 1.31173 2 7 3
22.1315 1.32075 1.32075 2 7 3
22.1493 1.32978 1.32978 2 7 3
22.1672 1.33881 1.33881 2 7 3
22.185 1.34785 1.34785 2 7 3
22.2028 1.35689 1.35689 2 7 3
22.2206 1.36593 1.36593 2 7 3
22.2385 1.37498 1.37498 2 7 3
22.2563 1.38403 1.38403 2 7 3
22.2741 1.39309 1.39309 2 7 3
22.2919 1.40215 1.40215 2 7 3
22.3097 1.41121 1.41121 2 7 3
22.3276 1.42028 1.42028 2 7 3
22.3454 1.42935 1.42935 2 7 3
22.3632 1.43842 1.43842 2 7 3
22.381 1.4475 1.4475 2 7 3
22.3988 1.45658 1.45658 2 7 3
22.4166 1.46567 1.46567 2 7 3
22.4344 1.47476 1.47476 2 7 3
22.4522 1.48385 1.48385 2 7 3
22.47 1.49295 1.49295 2 7 3
22.4878 1.50205 1.50205 2 7 3
22.5056 1.51116 1.51116 2 7 3
22.5234 1.52027 1.52027 2 7 3
22.5412 1.52938 1.52938 2 7 3
22.559 1.5385 1.5385 2 7 3
22.5768 1.54762 1.54762 2 7 3
22.5946 1.55674 1.55674 2 7 3
22.6123 1.56587 1.56587 2 7 3
22.6301 1.575 1.575 2 7 3
22.6479 1.58413 1.58413 2 7 3
22.6657 1.59327 1.59327 2 7 3
22.6835 1.60241 1.60241 2 7 3
22.7012 1.61156 1.61156 2 7 3
22.719 1.62071 1.62071 2 7 3
22.7368 1.62986 1.62986 2 7 3
22.7545 1.63902 1.63902 2 7 3
22.7723 1.64818 1.64818 2 7 3
22.7901 1.65735 1.65735 2 7 3
22.8078 1.66652 1.66652 2 7 3
22.8256 1.67569 1.67569 2 7 3
22.8434 1.68486 1.68486 2 7 3
22.8611 1.69404 1.69404 2 7 3
22.8789 1.70323 1.70323 2 7 3
22.8966 1.71241 1.71241 2 7 3
22.9144 1.7216 1.7216 2 7 3
22.9321 1.7308 1.7308 2 7 3
22.9499 1.73999 1.73999 2 7 3
22.9676 1.7492 1.7492 2 7 3
22.9854 1.7584 1.7584 2 7 3
23.0031 1.76761 1.76761 2 7 3
23.0209 1.77682 1.77682 2 7 3
23.0386 1.78604 1.78604 2 7 3
23.0563 1.79526 1.79526 2 7 3
23.0741 1.80448 1.80448 2 7 3
23.0918 1.81371 1.81371 2 7 3
23.1095 1.82294 1.82294 2 7 3
23.1273 1.83217 1.83217 2 7 3
23.145 1.84141 1.84141 2 7 3
23.1627 1.85065 1.85065 2 7 3
23.1804 1.85989 1.85989 2 7 3
23.1982 1.86914 1.86914 2 7 3
23.2159 1.87839 1.87839 2 7 3
23.2336 1.88765 1.88765 2 7 3
23.2513 1.89691 1.89691 2 7 3
23.269 1.90617 1.90617 2 7 3
23.2867 1.91544 1.91544 2 7 3
23.2867 1.91544 1.91544 2 7 3
23.3222 1.93398 1.93398 2 7 3
23.3399 1.94325 1.94325 2 7 3
23.3576 1.95254 1.95254 2 7 3
23.3753 1.96182 1.96182 2 7 3
23.393 1.97111 1.97111 2 7 3
23.4107 1.9804 1.9804 2 7 3
23.4284 1.98969 1.98969 2 7 3
23.4461 1.99899 1.99899 2 7 3
23.4638 2.00829 2.00829 2 7 3
23.4815 2.01759 2.01759 2 7 3
23.4992 2.0269 2.0269 2 7 3
23.5169 2.03621 2.03621 2 7 3
23.5345 2.04553 2.04553 2 7 3
23.5522 2.05485 2.05485 2 7 3
23.5699 2.06417 2.06417 2 7 3
23.5876 2.0735 2.0735 2 7 3
23.6053 2.08283 2.08283 2 7 3
23.623 2.09216 2.09216 2 7 3
23.6406 2.10149 2.10149 2 7 3
23.6583 2.11083 2.11083 2 7 3
23.676 2.12018 2.12018 2 7 3
23.6936 2.12952 2.12952 2 7 3
23.7113 2.13887 2.13887 2 7 3
23.729 2.14823 2.14823 2 7 3
23.7467 2.15758 2.15758 2 7 3
23.7643 2.16694 2.16694 2 7 3
23.782 2.17631 2.17631 2 7 3
23.7996 2.18567 2.18567 2 7 3
23.8173 2.19504 2.19504 2 7 3
23.835 2.20442 2.20442 2 7 3
23.8526 2.21379 2.21379 2 7 3
23.8703 2.22317 2.22317 2 7 3
23.8879 2.23256 2.23256 2 7 3
23.9056 2.24195 2.24195 2 7 3
23.9232 2.25134 2.25134 2 7 3
23.9409 2.26073 2.26073 2 7 3
23.9585 2.27013 2.27013 2 7 3
23.9761 2.27953 2.27953 2 7 3
23.9938 2.28893 2.28893 2 7 3
24.0114 2.29834 2.29834 2 7 3
24.0291 2.30775 2.30775 2 7 3
24.0467 2.31717 2.31717 2 7 3
24.0643 2.32658 2.32658 2 7 3
24.082 2.336 2.336 2 7 3
24.0996 2.34543 2.34543 2 7 3
24.1172 2.35486 2.35486 2 7 3
24.1348 2.36429 2.36429 2 7 3
24.1525 2.37372 2.37372 2 7 3
24.1701 2.38316 2.38316 2 7 3
24.1877 2.3926 2.3926 2 7 3
24.2053 2.40205 2.40205 2 7 3
24.223 2.41149 2.41149 2 7 3
24.2406 2.42094 2.42094 2 7 3
24.2582 2.4304 2.4304 2 7 3
24.2758 2.43986 2.43986 2 7 3
24.2934 2.44932 2.44932 2 7 3
24.311 2.45878 2.45878 2 7 3
24.3286 2.46825 2.46825 2 7 3
24.3462 2.47772 2.47772 2 7 3
24.3638 2.48719 2.48719 2 7 3
24.3814 2.49667 2.49667 2 7 3
24.399 2.50615 2.50615 2 7 3
24.4166 2.51563 2.51563 2 7 3
24.4342 2.52512 2.52512 2 7 3
24.4518 2.53461 2.53461 2 7 3
24.4694 2.5441 2.5441 2 7 3
24.487 2.5536 2.5536 2 7 3
24.5046 2.5631 2.5631 2 7 3
24.5222 2.5726 2.5726 2 7 3
24.5398 2.58211 2.58211 2 7 3
24.5574 2.59162 2.59162 2 7 3
24.5749 2.60113 2.60113 2 7 3
24.5925 2.61065 2.61065 2 7 3
24.6101 2.62017 2.62017 2 7 3
24.6277 2.62969 2.62969 2 7 3
24.6453 2.63922 2.63922 2 7 3
24.6628 2.64875 2.64875 2 7 3
24.6804 2.65828 2.65828 2 7 3
24.698 2.66781 2.66781 2 7 3
24.7156 2.67735 2.67735 2 7 3
24.7331 2.68689 2.68689 2 7 3
24.7507 2.69644 2.69644 2 7 3
24.7682 2.70599 2.70599 2 7 3
24.7858 2.71554 2.71554 2 7 3
24.8034 2.72509 2.72509 2 7 3
24.8209 2.73465 2.73465 2 7 3
24.8385 2.74421 2.74421 2 7 3
24.856 2.75378 2.75378 2 7 3
24.8736 2.76334 2.76334 2 7 3
24.8911 2.77291 2.77291 2 7 3
24.9087 2.78249 2.78249 2 7 3
24.9262 2.79206 2.79206 2 7 3
24.9438 2.80164 2.80164 2 7 3
24.9613 2.81123 2.81123 2 7 3
24.9789 2.82081 2.82081 2 7 3
24.9964 2.8304 2.8304 2 7 3
25.014 2.83999 2.83999 2 7 3
25.0315 2.84959 2.84959 2 7 3
25.049 2.85919 2.85919 2 7 3
25.0666 2.86879 2.86879 2 7 3
25.0841 2.87839 2.87839 2 7 3
25.1016 2.888 2.888 2 7 3
25.1192 2.89761 2.89761 2 7 3
25.1367 2.90723 2.90723 2 7 3
25.1542 2.91684 2.91684 2 7 3
25.1718 2.92647 2.92647 2 7 3
25.1893 2.93609 2.93609 2 7 3
25.2068 2.94571 2.94571 2 7 3
25.2243 2.95534 2.95534 2 7 3
25.2418 2.96498 2.96498 2 7 3
25.2594 2.97461 2.97461 2 7 3
25.2769 2.98425 2.98425 2 7 3
25.2944 2.99389 2.99389 2 7 3
25.3119 3.00354 3.00354 2 7 3
25.3294 3.01319 3.01319 2 7 3
25.3469 3.02284 3.02284 2 7 3
25.3644 3.03249 3.03249 2 7 3
25.3819 3.04215 3.04215 2 7 3
25.3994 3.05181 3.05181 2 7 3
25.4169 3.06147 3.06147 2 7 3
25.4344 3.07114 3.07114 2 7 3
25.4519 3.08081 3.08081 2 7 3
25.4694 3.09048 3.09048 2 7 3
25.4869 3.10015 3.10015 2 7 3
25.5044 3.10983 3.10983 2 7 3
25.5219 3.11951 3.11951 2 7 3
25.5394 3.1292 3.1292 2 7 3
25.5569 3.13889 3.13889 2 7 3
25.5744 3.14858 3.14858 2 7 3
25.5919 3.15827 3.15827 2 7 3
25.6093 3.16797 3.16797 2 7 3
25.6268 3.17767 3.17767 2 7 3
25.6443 3.18737 3.18737 2 7 3
25.6618 3.19707 3.19707 2 7 3
25.6793 3.20678 3.20678 2 7 3
25.6967 3.21649 3.21649 2 7 3
25.7142 3.22621 3.22621 2 7 3
25.7317 3.23592 3.23592 2 7 3
25.7491 3.24564 3.24564 2 7 3
25.7666 3.25537 3.25537 2 7 3
25.7841 3.26509 3.26509 2 7 3
25.8015 3.27482 3.27482 2 7 3
25.819 3.28456 3.28456 2 7 3
25.8365 3.29429 3.29429 2 7 3
25.8539 3.30403 3.30403 2 7 3
25.8714 3.31377 3.31377 2 7 3
25.8888 3.32351 3.32351 2 7 3
25.9063 3.33326 3.33326 2 7 3
25.9238 3.34301 3.34301 2 7 3
25.9412 3.35276 3.35276 2 7 3
25.9587 3.36252 3.36252 2 7 3
25.9761 3.37228 3.37228 2 7 3
25.9936 3.38204 3.38204 2 7 3
26.011 3.3918 3.3918 2 7 3
26.0284 3.40157 3.40157 2 7 3
26.0459 3.41134 3.41134 2 7 3
26.0633 3.42111 3.42111 2 7 3
26.0808 3.43089 3.43089 2 7 3
26.0982 3.44067 3.44067 2 7 3
26.1156 3.45045 3.45045 2 7 3
26.1331 3.46023 3.46023 2 7 3
26.1505 3.47002 3.47002 2 7 3
26.1679 3.47981 3.47981 2 7 3
26.1854 3.48961 3.48961 2 7 3
26.2028 3.4994 3.4994 2 7 3
26.2202 3.5092 3.5092 2 7 3
26.2377 3.519 3.519 2 7 3
26.2551 3.52881 3.52881 2 7 3
26.2725 3.53862 3.53862 2 7 3
26.2899 3.54843 3.54843 2 7 3
26.3073 3.55824 3.55824 2 7 3
26.3248 3.56806 3.56806 2 7 3
26.3422 3.57788 3.57788 2 7 3
26.3596 3.5877 3.5877 2 7 3
26.377 3.59752 3.59752 2 7 3
26.3944 3.60735 3.60735 2 7 3
26.4118 3.61718 3.61718 2 7 3
26.4292 3.62701 3.62701 2 7 3
26.4466 3.63685 3.63685 2 7 3
26.464 3.64669 3.64669 2 7 3
26.4814 3.65653 3.65653 2 7 3
26.4988 3.66638 3.66638 2 7 3
26.5162 3.67622 3.67622 2 7 3
26.5336 3.68607 3.68607 2 7 3
26.551 3.69593 3.69593 2 7 3
26.5684 3.70578 3.70578 2 7 3
26.5858 3.71564 3.71564 2 7 3
26.6032 3.7255 3.7255 2 7 3
26.6206 3.73537 3.73537 2 7 3
26.638 3.74523 3.74523 2 7 3
26.6554 3.7551 3.7551 2 7 3
26.6728 3.76498 3.76498 2 7 3
26.6901 3.77485 3.77485 2 7 3
26.7075 3.78473 3.78473 2 7 3
26.7249 3.79461 3.79461 2 7 3
26.7423 3.8045 3.8045 2 7 3
26.7597 3.81438 3.81438 2 7 3
26.777 3.82427 3.82427 2 7 3
26.7944 3.83416 3.83416 2 7 3
26.7944 3.83416 3.83416 2 7 3
26.8292 3.85396 3.85396 2 7 3
26.8465 3.86386 3.86386 2 7 3
26.8639 3.87376 3.87376 2 7 3
26.8813 3.88367 3.88367 2 7 3
26.8986 3.89357 3.89357 2 7 3
26.916 3.90349 3.90349 2 7 3
26.9334 3.9134 3.9134 2 7 3
26.9507 3.92332 3.92332 2 7 3
26.9681 3.93324 3.93324 2 7 3
26.9854 3.94316 3.94316 2 7 3
27.0028 3.95308 3.95308 2 7 3
27.0201 3.96301 3.96301 2 7 3
27.0375 3.97294 3.97294 2 7 3
27.0548 3.98288 3.98288 2 7 3
27.0722 3.99281 3.99281 2 7 3
27.0895 4.00275 4.00275 2 7 3
27.1069 4.01269 4.01269 2 7 3
27.1242 4.02264 4.02264 2 7 3
27.1416 4.03258 4.03258 2 7 3
27.1589 4.04253 4.04253 2 7 3
27.1763 4.05248 4.05248 2 7 3
27.1936 4.06244 4.06244 2 7 3
27.2109 4.0724 4.0724 2 7 3
27.2283 4.08236 4.08236 2 7 3
27.2456 4.09232 4.09232 2 7 3
27.2629 4.10229 4.10229 2 7 3
27.2803 4.11225 4.11225 2 7 3
27.2976 4.12223 4.12223 2 7 3
27.3149 4.1322 4.1322 2 7 3
27.3322 4.14218 4.14218 2 7 3
27.3496 4.15215 4.15215 2 7 3
27.3669 4.16214 4.16214 2 7 3
27.3842 4.17212 4.17212 2 7 3
27.4015 4.18211 4.18211 2 7 3
27.4189 4.1921 4.1921 2 7 3
27.4362 4.20209 4.20209 2 7 3
27.4535 4.21208 4.21208 2 7 3
27.4708 4.22208 4.22208 2 7 3
27.4881 4.23208 4.23208 2 7 3
27.5054 4.24208 4.24208 2 7 3
27.5227 4.25209 4.25209 2 7 3
27.54 4.2621 4.2621 2 7 3
27.5574 4.27211 4.27211 2 7 3
27.5747 4.28212 4.28212 2 7 3
27.592 4.29214 4.29214 2 7 3
27.6093 4.30216 4.30216 2 7 3
27.6266 4.31218 4.31218 2 7 3
27.6439 4.3222 4.3222 2 7 3
27.6612 4.33223 4.33223 2 7 3
27.6785 4.34226 4.34226 2 7 3
27.6958 4.35229 4.35229 2 7 3
27.713 4.36232 4.36232 2 7 3
27.7303 4.37236 4.37236 2 7 3
27.7476 4.3824 4.3824 2 7 3
27.7649 4.39244 4.39244 2 7 3
27.7822 4.40249 4.40249 2 7 3
27.7995 4.41254 4.41254 2 7 3
27.8168 4.42259 4.42259 2 7 3
27.8341 4.43264 4.43264 2 7 3
27.8513 4.44269 4.44269 2 7 3
27.8686 4.45275 4.45275 2 7 3
27.8859 4.46281 4.46281 2 7 3
27.9032 4.47287 4.47287 2 7 3
27.9204 4.48294 4.48294 2 7 3
27.9377 4.49301 4.49301 2 7 3
27.955 4.50308 4.50308 2 7 3
27.9723 4.51315 4.51315 2 7 3
27.9895 4.52323 4.52323 2 7 3
28.0068 4.5333 4.5333 2 7 3
28.0241 4.54339 4.54339 2 7 3
28.0413 4.55347 4.55347 2 7 3
28.0586 4.56355 4.56355 2 7 3
28.0759 4.57364 4.57364 2 7 3
28.0931 4.58373 4.58373 2 7 3
28.1104 4.59383 4.59383 2 7 3
28.1276 4.60392 4.60392 2 7 3
28.1449 4.61402 4.61402 2 7 3
28.1621 4.62412 4.62412 2 7 3
28.1794 4.63423 4.63423 2 7 3
28.1967 4.64433 4.64433 2 7 3
28.2139 4.65444 4.65444 2 7 3
28.2311 4.66455 4.66455 2 7 3
28.2484 4.67467 4.67467 2 7 3
28.2656 4.68478 4.68478 2 7 3
28.2829 4.6949 4.6949 2 7 3
28.3001 4.70502 4.70502 2 7 3
28.3174 4.71515 4.71515 2 7 3
28.3346 4.72527 4.72527 2 7 3
28.3518 4.7354 4.7354 2 7 3
28.3691 4.74553 4.74553 2 7 3
28.3863 4.75567 4.75567 2 7 3
28.4036 4.7658 4.7658 2 7 3
28.4208 4.77594 4.77594 2 7 3
28.438 4.78608 4.78608 2 7 3
28.4552 4.79623 4.79623 2 7 3
28.4725 4.80637 4.80637 2 7 3
28.4897 4.81652 4.81652 2 7 3
28.5069 4.82667 4.82667 2 7 3
28.5242 4.83683 4.83683 2 7 3
28.5414 4.84698 4.84698 2 7 3
28.5586 4.85714 4.85714 2 7 3
28.5758 4.8673 4.8673 2 7 3
28.593 4.87747 4.87747 2 7 3
28.6103 4.88763 4.88763 2 7 3
28.6275 4.8978 4.8978 2 7 3
28.6447 4.90797 4.90797 2 7 3
28.6619 4.91814 4.91814 2 7 3
28.6791 4.92832 4.92832 2 7 3
28.6963 4.9385 4.9385 2 7 3
28.7135 4.94868 4.94868 2 7 3
28.7307 4.95886 4.95886 2 7 3
28.7479 4.96905 4.96905 2 7 3
28.7651 4.97924 4.97924 2 7 3
28.7823 4.98943 4.98943 2 7 3
28.7995 4.99962 4.99962 2 7 3
28.8167 5.00981 5.00981 2 7 3
28.8339 5.02001 5.02001 2 7 3
28.8511 5.03021 5.03021 2 7 3
28.8683 5.04042 5.04042 2 7 3
28.8855 5.05062 5.05062 2 7 3
28.9027 5.06083 5.06083 2 7 3
28.9199 5.07104 5.07104 2 7 3
28.9371 5.08125 5.08125 2 7 3
28.9543 5.09146 5.09146 2 7 3
28.9715 5.10168 5.10168 2 7 3
28.9887 5.1119 5.1119 2 7 3
29.0058 5.12212 5.12212 2 7 3
29.023 5.13235 5.13235 2 7 3
29.0402 5.14257 5.14257 2 7 3
29.0574 5.1528 5.1528 2 7 3
29.0746 5.16303 5.16303 2 7 3
29.0917 5.17327 5.17327 2 7 3
29.1089 5.1835 5.1835 2 7 3
29.1261 5.19374 5.19374 2 7 3
29.1433 5.20398 5.20398 2 7 3
29.1604 5.21423 5.21423 2 7 3
29.1776 5.22447 5.22447 2 7 3
29.1948 5.23472 5.23472 2 7 3
29.2119 5.24497 5.24497 2 7 3
29.2291 5.25522 5.25522 2 7 3
29.2463 5.26548 5.26548 2 7 3
29.2634 5.27574 5.27574 2 7 3
29.2806 5.286 5.286 2 7 3
29.2977 5.29626 5.29626 2 7 3
29.3149 5.30652 5.30652 2 7 3
29.3321 5.31679 5.31679 2 7 3
29.3492 5.32706 5.32706 2 7 3
29.3664 5.33733 5.33733 2 7 3
29.3835 5.34761 5.34761 2 7 3
29.4007 5.35788 5.35788 2 7 3
29.4178 5.36816 5.36816 2 7 3
29.435 5.37844 5.37844 2 7 3
29.4521 5.38873 5.38873 2 7 3
29.4693 5.39901 5.39901 2 7 3
29.4864 5.4093 5.4093 2 7 3
29.5036 5.41959 5.41959 2 7 3
29.5207 5.42988 5.42988 2 7 3
29.5378 5.44018 5.44018 2 7 3
29.555 5.45048 5.45048 2 7 3
29.5721 5.46078 5.46078 2 7 3
29.5892 5.47108 5.47108 2 7 3
29.6064 5.48138 5.48138 2 7 3
29.6235 5.49169 5.49169 2 7 3
29.6406 5.502 5.502 2 7 3
29.6578 5.51231 5.51231 2 7 3
29.6749 5.52262 5.52262 2 7 3
29.692 5.53294 5.53294 2 7 3
29.7092 5.54326 5.54326 2 7 3
29.7263 5.55358 5.55358 2 7 3
29.7434 5.5639 5.5639 2 7 3
29.7605 5.57423 5.57423 2 7 3
29.7777 5.58455 5.58455 2 7 3
29.7948 5.59488 5.59488 2 7 3
29.8119 5.60522 5.60522 2 7 3
29.829 5.61555 5.61555 2 7 3
29.8461 5.62589 5.62589 2 7 3
29.8632 5.63622 5.63622 2 7 3
29.8803 5.64657 5.64657 2 7 3
29.8975 5.65691 5.65691 2 7 3
29.9146 5.66726 5.66726 2 7 3
29.9317 5.6776 5.6776 2 7 3
29.9488 5.68795 5.68795 2 7 3
29.9659 5.69831 5.69831 2 7 3
29.983 5.70866 5.70866 2 7 3
30.0001 5.71902 5.71902 2 7 3
20.6083 0.56811 0.56811 2 7 3
20.5723 0.550766 0.550766 2 7 3
20.5543 0.542104 0.542104 2 7 3
20.5363 0.533444 0.533444 2 7 3
20.5183 0.524788 0.524788 2 7 3
20.5002 0.516137 0.516137 2 7 3
20.4822 0.507491 0.507491 2 7 3
20.4642 0.498849 0.498849 2 7 3
20.4462 0.490211 0.490211 2 7 3
20.4281 0.481578 0.481578 2 7 3
20.4101 0.472949 0.472949 2 7 3
20.3921 0.464325 0.464325 2 7 3
20.3741 0.455706 0.455706 2 7 3
20.356 0.44709 0.44709 2 7 3
20.338 0.43848 0.43848 2 7 3
20.3199 0.429874 0.429874 2 7 3
20.3019 0.421272 0.421272 2 7 3
20.2839 0.412675 0.412675 2 7 3
20.2658 0.404082 0.404082 2 7 3
20.2478 0.395494 0.395494 2 7 3
20.2297 0.38691 0.38691 2 7 3
20.2117 0.378331 0.378331 2 7 3
20.1936 0.369757 0.369757 2 7 3
20.1756 0.361187 0.361187 2 7 3
20.1575 0.352622 0.352622 2 7 3
20.1394 0.344061 0.344061 2 7 3
20.1214 0.335505 0.335505 2 7 3
20.1033 0.326953 0.326953 2 7 3
20.0852 0.318406 0.318406 2 7 3
20.0672 0.309864 0.309864 2 7 3
20.0491 0.301326 0.301326 2 7 3
20.031 0.292793 0.292793 2 7 3
20.013 0.284265 0.284265 2 7 3
19.9949 0.275741 0.275741 2 7 3
19.9768 0.267221 0.267221 2 7 3
19.9587 0.258707 0.258707 2 7 3
19.9406 0.250197 0.250197 2 7 3
19.9225 0.241692 0.241692 2 7 3
19.9045 0.233191 0.233191 2 7 3
19.8864 0.224695 0.224695 2 7 3
19.8683 0.216204 0.216204 2 7 3
19.8502 0.207718 0.207718 2 7 3
19.8321 0.199236 0.199236 2 7 3
19.814 0.190759 0.190759 2 7 3
19.7959 0.182286 0.182286 2 7 3
19.7778 0.173819 0.173819 2 7 3
19.7597 0.165356 0.165356 2 7 3
19.7416 0.156898 0.156898 2 7 3
19.7235 0.148444 0.148444 2 7 3
19.7053 0.139996 0.139996 2 7 3
19.6872 0.131552 0.131552 2 7 3
19.6691 0.123113 0.123113 2 7 3
19.651 0.114678 0.114678 2 7 3
19.6329 0.106249 0.106249 2 7 3
19.6147 0.0978239 0.0978239 2 7 3
19.5966 0.0894041 0.0894041 2 7 3
19.5785 0.0809887 0.0809887 2 7 3
19.5604 0.0725785 0.0725785 2 7 3
19.5422 0.064173 0.064173 2 7 3
19.5241 0.0557724 0.0557724 2 7 3
19.506 0.0473764 0.0473764 2 7 3
19.4878 0.0389857 0.0389857 2 7 3
19.4697 0.0305994 0.0305994 2 7 3
19.4515 0.0222181 0.0222181 2 7 3
19.4334 0.0138417 0.0138417 2 7 3
19.4152 0.00547038 0.00547038 2 7 3
19.3971 -0.00289634 -0.00289634 2 7 3
19.3789 -0.0112581 -0.0112581 2 7 3
19.3608 -0.0196149 -0.0196149 2 7 3
19.3426 -0.0279666 -0.0279666 2 7 3
19.3245 -0.0363138 -0.0363138 2 7 3
19.3063 -0.0446557 -0.0446557 2 7 3
19.2881 -0.0529929 -0.0529929 2 7 3
19.27 -0.0613251 -0.0613251 2 7 3
19.2518 -0.0696522 -0.0696522 2 7 3
19.2336 -0.0779745 -0.0779745 2 7 3
19.2155 -0.0862917 -0.0862917 2 7 3
19.1973 -0.094604 -0.094604 2 7 3
19.1791 -0.102911 -0.102911 2 7 3
19.1609 -0.111214 -0.111214 2 7 3
19.1428 -0.119511 -0.119511 2 7 3
19.1246 -0.127803 -0.127803 2 7 3
19.1064 -0.13609 -0.13609 2 7 3
19.0882 -0.144373 -0.144373 2 7 3
19.07 -0.15265 -0.15265 2 7 3
19.0518 -0.160922 -0.160922 2 7 3
19.0336 -0.169189 -0.169189 2 7 3
19.0154 -0.177451 -0.177451 2 7 3
18.9972 -0.185708 -0.185708 2 7 3
18.979 -0.19396 -0.19396 2 7 3
18.9608 -0.202207 -0.202207 2 7 3
18.9426 -0.210448 -0.210448 2 7 3
18.9244 -0.218685 -0.218685 2 7 3
18.9062 -0.226917 -0.226917 2 7 3
18.888 -0.235143 -0.235143 2 7 3
18.8698 -0.243364 -0.243364 2 7 3
18.8515 -0.25158 -0.25158 2 7 3
18.8333 -0.259791 -0.259791 2 7 3
18.8151 -0.267997 -0.267997 2 7 3
18.7969 -0.276197 -0.276197 2 7 3
18.7787 -0.284393 -0.284393 2 7 3
18.7604 -0.292583 -0.292583 2 7 3
18.7422 -0.300768 -0.300768 2 7 3
18.724 -0.308948 -0.308948 2 7 3
18.7057 -0.317123 -0.317123 2 7 3
18.6875 -0.325292 -0.325292 2 7 3
18.6692 -0.333456 -0.333456 2 7 3
18.651 -0.341615 -0.341615 2 7 3
18.6328 -0.349769 -0.349769 2 7 3
18.6145 -0.357917 -0.357917 2 7 3
18.5963 -0.366061 -0.366061 2 7 3
18.578 -0.374198 -0.374198 2 7 3
18.5598 -0.382331 -0.382331 2 7 3
18.5415 -0.390458 -0.390458 2 7 3
18.5232 -0.39858 -0.39858 2 7 3
18.505 -0.406697 -0.406697 2 7 3
18.4867 -0.414808 -0.414808 2 7 3
18.4685 -0.422915 -0.422915 2 7 3
18.4502 -0.431015 -0.431015 2 7 3
18.4319 -0.439111 -0.439111 2 7 3
18.4136 -0.447201 -0.447201 2 7 3
18.3954 -0.455285 -0.455285 2 7 3
18.3771 -0.463365 -0.463365 2 7 3
18.3588 -0.471439 -0.471439 2 7 3
18.3405 -0.479507 -0.479507 2 7 3
18.3222 -0.48757 -0.48757 2 7 3
18.304 -0.495628 -0.495628 2 7 3
18.2857 -0.50368 -0.50368 2 7 3
18.2674 -0.511727 -0.511727 2 7 3
18.2491 -0.519769 -0.519769 2 7 3
18.2308 -0.527805 -0.527805 2 7 3
18.2125 -0.535835 -0.535835 2 7 3
18.1942 -0.54386 -0.54386 2 7 3
18.1759 -0.55188 -0.55188 2 7 3
18.1576 -0.559894 -0.559894 2 7 3
18.1393 -0.567902 -0.567902 2 7 3
18.121 -0.575905 -0.575905 2 7 3
18.1026 -0.583903 -0.583903 2 7 3
18.0843 -0.591895 -0.591895 2 7 3
18.066 -0.599881 -0.599881 2 7 3
18.0477 -0.607862 -0.607862 2 7 3
18.0294 -0.615838 -0.615838 2 7 3
18.011 -0.623807 -0.623807 2 7 3
17.9927 -0.631772 -0.631772 2 7 3
17.9744 -0.63973 -0.63973 2 7 3
17.9561 -0.647683 -0.647683 2 7 3
17.9377 -0.655631 -0.655631 2 7 3
17.9194 -0.663573 -0.663573 2 7 3
17.901 -0.671509 -0.671509 2 7 3
17.8827 -0.679439 -0.679439 2 7 3
17.8644 -0.687364 -0.687364 2 7 3
17.846 -0.695284 -0.695284 2 7 3
17.8277 -0.703197 -0.703197 2 7 3
17.8093 -0.711105 -0.711105 2 7 3
17.791 -0.719007 -0.719007 2 7 3
17.7726 -0.726904 -0.726904 2 7 3
17.7542 -0.734794 -0.734794 2 7 3
17.7359 -0.742679 -0.742679 2 7 3
17.7175 -0.750559 -0.750559 2 7 3
17.6992 -0.758433 -0.758433 2 7 3
17.6808 -0.7663 -0.7663 2 7 3
17.6624 -0.774163 -0.774163 2 7 3
17.644 -0.782019 -0.782019 2 7 3
17.6257 -0.789869 -0.789869 2 7 3
17.6073 -0.797714 -0.797714 2 7 3
17.5889 -0.805553 -0.805553 2 7 3
17.5705 -0.813386 -0.813386 2 7 3
17.5521 -0.821214 -0.821214 2 7 3
17.5338 -0.829035 -0.829035 2 7 3
17.5154 -0.836851 -0.836851 2 7 3
17.497 -0.844661 -0.844661 2 7 3
17.4786 -0.852465 -0.852465 2 7 3
17.4602 -0.860263 -0.860263 2 7 3
17.4418 -0.868055 -0.868055 2 7 3
17.4234 -0.875841 -0.875841 2 7 3
17.405 -0.883622 -0.883622 2 7 3
17.3866 -0.891396 -0.891396 2 7 3
17.3682 -0.899165 -0.899165 2 7 3
17.3497 -0.906927 -0.906927 2 7 3
17.3313 -0.914684 -0.914684 2 7 3
17.3129 -0.922434 -0.922434 2 7 3
17.2945 -0.930179 -0.930179 2 7 3
17.2761 -0.937918 -0.937918 2 7 3
17.2577 -0.945651 -0.945651 2 7 3
17.2392 -0.953377 -0.953377 2 7 3
17.2208 -0.961098 -0.961098 2 7 3
17.2024 -0.968813 -0.968813 2 7 3
17.1839 -0.976521 -0.976521 2 7 3
17.1655 -0.984224 -0.984224 2 7 3
17.1471 -0.99192 -0.99192 2 7 3
17.1286 -0.999611 -0.999611 2 7 3
17.1102 -1.0073 -1.0073 2 7 3
17.0917 -1.01497 -1.01497 2 7 3
17.0733 -1.02265 -1.02265 2 7 3
17.0548 -1.03031 -1.03031 2 7 3
17.0364 -1.03797 -1.03797 2 7 3
17.0179 -1.04563 -1.04563 2 7 3
16.9995 -1.05327 -1.05327 2 7 3
16.981 -1.06091 -1.06091 2 7 3
16.9625 -1.06855 -1.06855 2 7 3
