13.4783 28.57 28.57 2 11 3
13.4567 28.5364 28.5364 2 11 3
13.4459 28.5196 28.5196 2 11 3
13.4351 28.5028 28.5028 2 11 3
13.4243 28.486 28.486 2 11 3
13.4135 28.4692 28.4692 2 11 3
13.4027 28.4524 28.4524 2 11 3
13.3919 28.4356 28.4356 2 11 3
13.3811 28.4187 28.4187 2 11 3
13.3703 28.4019 28.4019 2 11 3
13.3595 28.3851 28.3851 2 11 3
13.3488 28.3683 28.3683 2 11 3
13.338 28.3514 28.3514 2 11 3
13.3273 28.3346 28.3346 2 11 3
13.3165 28.3178 28.3178 2 11 3
13.3057 28.3009 28.3009 2 11 3
13.295 28.2841 28.2841 2 11 3
13.2843 28.2673 28.2673 2 11 3
13.2735 28.2504 28.2504 2 11 3
13.2628 28.2336 28.2336 2 11 3
13.2521 28.2167 28.2167 2 11 3
13.2413 28.1999 28.1999 2 11 3
13.2306 28.183 28.183 2 11 3
13.2199 28.1661 28.1661 2 11 3
13.2092 28.1493 28.1493 2 11 3
13.1985 28.1324 28.1324 2 11 3
13.1878 28.1155 28.1155 2 11 3
13.1771 28.0987 28.0987 2 11 3
13.1664 28.0818 28.0818 2 11 3
13.1557 28.0649 28.0649 2 11 3
13.145 28.048 28.048 2 11 3
13.1343 28.0311 28.0311 2 11 3
13.1237 28.0143 28.0143 2 11 3
13.113 27.9974 27.9974 2 11 3
13.1023 27.9805 27.9805 2 11 3
13.0917 27.9636 27.9636 2 11 3
13.081 27.9467 27.9467 2 11 3
13.0704 27.9298 27.9298 2 11 3
13.0597 27.9129 27.9129 2 11 3
13.0491 27.896 27.896 2 11 3
13.0385 27.8791 27.8791 2 11 3
13.0278 27.8621 27.8621 2 11 3
13.0172 27.8452 27.8452 2 11 3
13.0066 27.8283 27.8283 2 11 3
12.9959 27.8114 27.8114 2 11 3
12.9853 27.7945 27.7945 2 11 3
12.9747 27.7775 27.7775 2 11 3
12.9641 27.7606 27.7606 2 11 3
12.9535 27.7437 27.7437 2 11 3
12.9429 27.7268 27.7268 2 11 3
12.9323 27.7098 27.7098 2 11 3
12.9217 27.6929 27.6929 2 11 3
12.9112 27.6759 27.6759 2 11 3
12.9006 27.659 27.659 2 11 3
12.89 27.642 27.642 2 11 3
12.8794 27.6251 27.6251 2 11 3
12.8689 27.6081 27.6081 2 11 3
12.8583 27.5912 27.5912 2 11 3
12.8478 27.5742 27.5742 2 11 3
12.8372 27.5573 27.5573 2 11 3
12.8267 27.5403 27.5403 2 11 3
12.8161 27.5233 27.5233 2 11 3
12.8056 27.5063 27.5063 2 11 3
12.7951 27.4894 27.4894 2 11 3
12.7845 27.4724 27.4724 2 11 3
12.774 27.4554 27.4554 2 11 3
12.7635 27.4384 27.4384 2 11 3
12.753 27.4215 27.4215 2 11 3
12.7425 27.4045 27.4045 2 11 3
12.732 27.3875 27.3875 2 11 3
12.7215 27.3705 27.3705 2 11 3
12.711 27.3535 27.3535 2 11 3
12.7005 27.3365 27.3365 2 11 3
12.69 27.3195 27.3195 2 11 3
12.6795 27.3025 27.3025 2 11 3
12.669 27.2855 27.2855 2 11 3
12.6586 27.2685 27.2685 2 11 3
12.6481 27.2515 27.2515 2 11 3
12.6376 27.2344 27.2344 2 11 3
12.6272 27.2174 27.2174 2 11 3
12.6167 27.2004 27.2004 2 11 3
12.6063 27.1834 27.1834 2 11 3
12.5958 27.1664 27.1664 2 11 3
12.5854 27.1493 27.1493 2 11 3
12.5749 27.1323 27.1323 2 11 3
12.5645 27.1153 27.1153 2 11 3
12.5541 27.0982 27.0982 2 11 3
12.5437 27.0812 27.0812 2 11 3
12.5332 27.0641 27.0641 2 11 3
12.5228 27.0471 27.0471 2 11 3
12.5124 27.03 27.03 2 11 3
12.502 27.013 27.013 2 11 3
12.4916 26.9959 26.9959 2 11 3
12.4812 26.9789 26.9789 2 11 3
12.4708 26.9618 26.9618 2 11 3
12.4604 26.9448 26.9448 2 11 3
12.4501 26.9277 26.9277 2 11 3
12.4397 26.9106 26.9106 2 11 3
12.4293 26.8936 26.8936 2 11 3
12.4189 26.8765 26.8765 2 11 3
12.4086 26.8594 26.8594 2 11 3
12.3982 26.8423 26.8423 2 11 3
12.3879 26.8253 26.8253 2 11 3
12.3775 26.8082 26.8082 2 11 3
12.3672 26.7911 26.7911 2 11 3
12.3568 26.774 26.774 2 11 3
12.3465 26.7569 26.7569 2 11 3
12.3362 26.7398 26.7398 2 11 3
12.3258 26.7227 26.7227 2 11 3
12.3155 26.7056 26.7056 2 11 3
12.3052 26.6885 26.6885 2 11 3
12.2949 26.6714 26.6714 2 11 3
12.2846 26.6543 26.6543 2 11 3
12.2743 26.6372 26.6372 2 11 3
12.264 26.6201 26.6201 2 11 3
12.2537 26.603 26.603 2 11 3
12.2434 26.5859 26.5859 2 11 3
12.2331 26.5687 26.5687 2 11 3
12.2228 26.5516 26.5516 2 11 3
12.2125 26.5345 26.5345 2 11 3
12.2023 26.5174 26.5174 2 11 3
12.192 26.5002 26.5002 2 11 3
12.1817 26.4831 26.4831 2 11 3
12.1715 26.466 26.466 2 11 3
12.1612 26.4488 26.4488 2 11 3
12.151 26.4317 26.4317 2 11 3
12.1407 26.4145 26.4145 2 11 3
12.1305 26.3974 26.3974 2 11 3
12.1203 26.3802 26.3802 2 11 3
12.11 26.3631 26.3631 2 11 3
12.0998 26.3459 26.3459 2 11 3
12.0896 26.3288 26.3288 2 11 3
12.0794 26.3116 26.3116 2 11 3
12.0691 26.2944 26.2944 2 11 3
12.0589 26.2773 26.2773 2 11 3
12.0487 26.2601 26.2601 2 11 3
12.0385 26.2429 26.2429 2 11 3
12.0283 26.2258 26.2258 2 11 3
12.0182 26.2086 26.2086 2 11 3
12.008 26.1914 26.1914 2 11 3
11.9978 26.1742 26.1742 2 11 3
11.9876 26.157 26.157 2 11 3
11.9774 26.1399 26.1399 2 11 3
11.9673 26.1227 26.1227 2 11 3
11.9571 26.1055 26.1055 2 11 3
11.9469 26.0883 26.0883 2 11 3
11.9368 26.0711 26.0711 2 11 3
11.9266 26.0539 26.0539 2 11 3
11.9165 26.0367 26.0367 2 11 3
11.9064 26.0195 26.0195 2 11 3
11.8962 26.0023 26.0023 2 11 3
11.8861 25.9851 25.9851 2 11 3
11.876 25.9678 25.9678 2 11 3
11.8658 25.9506 25.9506 2 11 3
11.8557 25.9334 25.9334 2 11 3
11.8456 25.9162 25.9162 2 11 3
11.8355 25.899 25.899 2 11 3
11.8254 25.8817 25.8817 2 11 3
11.8153 25.8645 25.8645 2 11 3
11.8052 25.8473 25.8473 2 11 3
11.7951 25.83 25.83 2 11 3
11.785 25.8128 25.8128 2 11 3
11.7749 25.7956 25.7956 2 11 3
11.7649 25.7783 25.7783 2 11 3
11.7548 25.7611 25.7611 2 11 3
11.7447 25.7438 25.7438 2 11 3
11.7347 25.7266 25.7266 2 11 3
11.7246 25.7093 25.7093 2 11 3
11.7145 25.6921 25.6921 2 11 3
11.7045 25.6748 25.6748 2 11 3
11.6945 25.6576 25.6576 2 11 3
11.6844 25.6403 25.6403 2 11 3
11.6744 25.623 25.623 2 11 3
11.6643 25.6058 25.6058 2 11 3
11.6543 25.5885 25.5885 2 11 3
11.6443 25.5712 25.5712 2 11 3
11.6343 25.554 25.554 2 11 3
11.6243 25.5367 25.5367 2 11 3
11.6143 25.5194 25.5194 2 11 3
11.6043 25.5021 25.5021 2 11 3
11.5943 25.4848 25.4848 2 11 3
11.5843 25.4675 25.4675 2 11 3
11.5743 25.4502 25.4502 2 11 3
11.5643 25.433 25.433 2 11 3
11.5543 25.4157 25.4157 2 11 3
11.5443 25.3984 25.3984 2 11 3
11.5343 25.3811 25.3811 2 11 3
11.5244 25.3638 25.3638 2 11 3
11.5144 25.3465 25.3465 2 11 3
11.5045 25.3291 25.3291 2 11 3
11.4945 25.3118 25.3118 2 11 3
11.4846 25.2945 25.2945 2 11 3
11.4746 25.2772 25.2772 2 11 3
11.4647 25.2599 25.2599 2 11 3
11.4547 25.2426 25.2426 2 11 3
11.4448 25.2252 25.2252 2 11 3
11.4349 25.2079 25.2079 2 11 3
11.4249 25.1906 25.1906 2 11 3
11.415 25.1733 25.1733 2 11 3
11.4051 25.1559 25.1559 2 11 3
13.4783 28.57 28.57 2 11 3
13.5 28.6036 28.6036 2 11 3
13.5108 28.6204 28.6204 2 11 3
13.5216 28.6372 28.6372 2 11 3
13.5325 28.6539 28.6539 2 11 3
13.5433 28.6707 28.6707 2 11 3
13.5542 28.6875 28.6875 2 11 3
13.565 28.7043 28.7043 2 11 3
13.5759 28.721 28.721 2 11 3
13.5868 28.7378 28.7378 2 11 3
13.5976 28.7546 28.7546 2 11 3
13.6085 28.7713 28.7713 2 11 3
13.6194 28.7881 28.7881 2 11 3
13.6303 28.8048 28.8048 2 11 3
13.6412 28.8216 28.8216 2 11 3
13.652 28.8383 28.8383 2 11 3
13.6629 28.8551 28.8551 2 11 3
13.6738 28.8718 28.8718 2 11 3
13.6847 28.8886 28.8886 2 11 3
13.6957 28.9053 28.9053 2 11 3
13.7066 28.922 28.922 2 11 3
13.7175 28.9388 28.9388 2 11 3
13.7284 28.9555 28.9555 2 11 3
13.7393 28.9722 28.9722 2 11 3
13.7503 28.9889 28.9889 2 11 3
13.7612 29.0057 29.0057 2 11 3
13.7722 29.0224 29.0224 2 11 3
13.7831 29.0391 29.0391 2 11 3
13.7941 29.0558 29.0558 2 11 3
13.805 29.0725 29.0725 2 11 3
13.816 29.0892 29.0892 2 11 3
13.8269 29.1059 29.1059 2 11 3
13.8379 29.1226 29.1226 2 11 3
13.8489 29.1393 29.1393 2 11 3
13.8599 29.156 29.156 2 11 3
13.8709 29.1727 29.1727 2 11 3
13.8818 29.1894 29.1894 2 11 3
13.8928 29.206 29.206 2 11 3
13.9038 29.2227 29.2227 2 11 3
13.9148 29.2394 29.2394 2 11 3
13.9258 29.2561 29.2561 2 11 3
13.9369 29.2728 29.2728 2 11 3
13.9479 29.2894 29.2894 2 11 3
13.9589 29.3061 29.3061 2 11 3
13.9699 29.3228 29.3228 2 11 3
13.9809 29.3394 29.3394 2 11 3
13.992 29.3561 29.3561 2 11 3
14.003 29.3727 29.3727 2 11 3
14.0141 29.3894 29.3894 2 11 3
14.0251 29.406 29.406 2 11 3
14.0362 29.4227 29.4227 2 11 3
14.0472 29.4393 29.4393 2 11 3
14.0583 29.4559 29.4559 2 11 3
14.0693 29.4726 29.4726 2 11 3
14.0804 29.4892 29.4892 2 11 3
14.0915 29.5058 29.5058 2 11 3
14.1026 29.5225 29.5225 2 11 3
14.1137 29.5391 29.5391 2 11 3
14.1247 29.5557 29.5557 2 11 3
14.1358 29.5723 29.5723 2 11 3
14.1469 29.589 29.589 2 11 3
14.158 29.6056 29.6056 2 11 3
14.1691 29.6222 29.6222 2 11 3
14.1803 29.6388 29.6388 2 11 3
14.1914 29.6554 29.6554 2 11 3
14.2025 29.672 29.672 2 11 3
14.2136 29.6886 29.6886 2 11 3
14.2247 29.7052 29.7052 2 11 3
14.2359 29.7218 29.7218 2 11 3
14.247 29.7384 29.7384 2 11 3
14.2582 29.7549 29.7549 2 11 3
14.2693 29.7715 29.7715 2 11 3
14.2805 29.7881 29.7881 2 11 3
14.2916 29.8047 29.8047 2 11 3
14.3028 29.8212 29.8212 2 11 3
14.3139 29.8378 29.8378 2 11 3
14.3251 29.8544 29.8544 2 11 3
14.3363 29.8709 29.8709 2 11 3
14.3475 29.8875 29.8875 2 11 3
14.3587 29.9041 29.9041 2 11 3
14.3698 29.9206 29.9206 2 11 3
14.381 29.9372 29.9372 2 11 3
14.3922 29.9537 29.9537 2 11 3
14.4034 29.9703 29.9703 2 11 3
14.4146 29.9868 29.9868 2 11 3
14.4259 30.0033 30.0033 2 11 3
14.4371 30.0199 30.0199 2 11 3
14.4483 30.0364 30.0364 2 11 3
14.4595 30.0529 30.0529 2 11 3
14.4707 30.0695 30.0695 2 11 3
14.482 30.086 30.086 2 11 3
14.4932 30.1025 30.1025 2 11 3
14.5045 30.119 30.119 2 11 3
14.5157 30.1356 30.1356 2 11 3
14.527 30.1521 30.1521 2 11 3
14.5382 30.1686 30.1686 2 11 3
14.5495 30.1851 30.1851 2 11 3
14.5608 30.2016 30.2016 2 11 3
14.572 30.2181 30.2181 2 11 3
14.5833 30.2346 30.2346 2 11 3
14.5946 30.2511 30.2511 2 11 3
14.6059 30.2676 30.2676 2 11 3
14.6172 30.284 30.284 2 11 3
14.6284 30.3005 30.3005 2 11 3
14.6397 30.317 30.317 2 11 3
14.651 30.3335 30.3335 2 11 3
14.6624 30.35 30.35 2 11 3
14.6737 30.3664 30.3664 2 11 3
14.685 30.3829 30.3829 2 11 3
14.6963 30.3994 30.3994 2 11 3
14.7076 30.4158 30.4158 2 11 3
14.719 30.4323 30.4323 2 11 3
14.7303 30.4488 30.4488 2 11 3
14.7416 30.4652 30.4652 2 11 3
14.753 30.4817 30.4817 2 11 3
14.7643 30.4981 30.4981 2 11 3
14.7757 30.5145 30.5145 2 11 3
14.787 30.531 30.531 2 11 3
14.7984 30.5474 30.5474 2 11 3
14.8098 30.5639 30.5639 2 11 3
14.8211 30.5803 30.5803 2 11 3
14.8325 30.5967 30.5967 2 11 3
14.8439 30.6131 30.6131 2 11 3
14.8553 30.6296 30.6296 2 11 3
14.8667 30.646 30.646 2 11 3
14.8781 30.6624 30.6624 2 11 3
14.8894 30.6788 30.6788 2 11 3
14.9009 30.6952 30.6952 2 11 3
14.9123 30.7116 30.7116 2 11 3
14.9237 30.728 30.728 2 11 3
14.9351 30.7444 30.7444 2 11 3
14.9465 30.7608 30.7608 2 11 3
14.9579 30.7772 30.7772 2 11 3
14.9694 30.7936 30.7936 2 11 3
14.9808 30.81 30.81 2 11 3
14.9922 30.8264 30.8264 2 11 3
15.0037 30.8428 30.8428 2 11 3
15.0151 30.8592 30.8592 2 11 3
15.0266 30.8755 30.8755 2 11 3
15.038 30.8919 30.8919 2 11 3
15.0495 30.9083 30.9083 2 11 3
15.061 30.9246 30.9246 2 11 3
15.0724 30.941 30.941 2 11 3
15.0839 30.9574 30.9574 2 11 3
15.0954 30.9737 30.9737 2 11 3
15.1069 30.9901 30.9901 2 11 3
15.1184 31.0064 31.0064 2 11 3
15.1299 31.0228 31.0228 2 11 3
15.1414 31.0391 31.0391 2 11 3
15.1529 31.0555 31.0555 2 11 3
15.1644 31.0718 31.0718 2 11 3
15.1759 31.0881 31.0881 2 11 3
15.1874 31.1045 31.1045 2 11 3
15.1989 31.1208 31.1208 2 11 3
15.2104 31.1371 31.1371 2 11 3
15.222 31.1534 31.1534 2 11 3
15.2335 31.1698 31.1698 2 11 3
15.245 31.1861 31.1861 2 11 3
15.2566 31.2024 31.2024 2 11 3
15.2681 31.2187 31.2187 2 11 3
15.2797 31.235 31.235 2 11 3
15.2912 31.2513 31.2513 2 11 3
15.3028 31.2676 31.2676 2 11 3
15.3144 31.2839 31.2839 2 11 3
15.3259 31.3002 31.3002 2 11 3
15.3375 31.3165 31.3165 2 11 3
15.3491 31.3328 31.3328 2 11 3
15.3607 31.3491 31.3491 2 11 3
15.3723 31.3653 31.3653 2 11 3
15.3838 31.3816 31.3816 2 11 3
15.3954 31.3979 31.3979 2 11 3
15.407 31.4142 31.4142 2 11 3
15.4186 31.4304 31.4304 2 11 3
15.4303 31.4467 31.4467 2 11 3
15.4419 31.463 31.463 2 11 3
15.4535 31.4792 31.4792 2 11 3
15.4651 31.4955 31.4955 2 11 3
15.4767 31.5117 31.5117 2 11 3
15.4884 31.528 31.528 2 11 3
15.5 31.5442 31.5442 2 11 3
15.5117 31.5605 31.5605 2 11 3
15.5233 31.5767 31.5767 2 11 3
15.535 31.5929 31.5929 2 11 3
15.5466 31.6092 31.6092 2 11 3
15.5583 31.6254 31.6254 2 11 3
15.5699 31.6416 31.6416 2 11 3
15.5816 31.6579 31.6579 2 11 3
15.5933 31.6741 31.6741 2 11 3
15.605 31.6903 31.6903 2 11 3
15.6166 31.7065 31.7065 2 11 3
15.6283 31.7227 31.7227 2 11 3
15.64 31.7389 31.7389 2 11 3
15.6517 31.7551 31.7551 2 11 3
15.6634 31.7713 31.7713 2 11 3
15.6751 31.7875 31.7875 2 11 3
15.6868 31.8037 31.8037 2 11 3
15.6985 31.8199 31.8199 2 11 3
15.7103 31.8361 31.8361 2 11 3
15.722 31.8523 31.8523 2 11 3
15.7337 31.8685 31.8685 2 11 3
13.4783 1.4 1.4 2 11 3
13.5128 1.42019 1.42019 2 11 3
13.53 1.43029 1.43029 2 11 3
13.5472 1.4404 1.4404 2 11 3
13.5645 1.45051 1.45051 2 11 3
13.5817 1.46064 1.46064 2 11 3
13.5989 1.47076 1.47076 2 11 3
13.6161 1.4809 1.4809 2 11 3
13.6333 1.49104 1.49104 2 11 3
13.6505 1.50118 1.50118 2 11 3
13.6677 1.51133 1.51133 2 11 3
13.6849 1.52149 1.52149 2 11 3
13.7021 1.53165 1.53165 2 11 3
13.7193 1.54182 1.54182 2 11 3
13.7365 1.552 1.552 2 11 3
13.7537 1.56218 1.56218 2 11 3
13.7708 1.57237 1.57237 2 11 3
13.788 1.58256 1.58256 2 11 3
13.8052 1.59276 1.59276 2 11 3
13.8224 1.60296 1.60296 2 11 3
13.8395 1.61317 1.61317 2 11 3
13.8567 1.62339 1.62339 2 11 3
13.8738 1.63361 1.63361 2 11 3
13.891 1.64384 1.64384 2 11 3
13.9082 1.65407 1.65407 2 11 3
13.9253 1.66431 1.66431 2 11 3
13.9424 1.67455 1.67455 2 11 3
13.9596 1.6848 1.6848 2 11 3
13.9767 1.69506 1.69506 2 11 3
13.9939 1.70532 1.70532 2 11 3
14.011 1.71559 1.71559 2 11 3
14.0281 1.72586 1.72586 2 11 3
14.0453 1.73614 1.73614 2 11 3
14.0624 1.74642 1.74642 2 11 3
14.0795 1.75671 1.75671 2 11 3
14.0966 1.76701 1.76701 2 11 3
14.1137 1.77731 1.77731 2 11 3
14.1308 1.78762 1.78762 2 11 3
14.1479 1.79793 1.79793 2 11 3
14.1651 1.80824 1.80824 2 11 3
14.1822 1.81857 1.81857 2 11 3
14.1992 1.8289 1.8289 2 11 3
14.2163 1.83923 1.83923 2 11 3
14.2334 1.84957 1.84957 2 11 3
14.2505 1.85991 1.85991 2 11 3
14.2676 1.87027 1.87027 2 11 3
14.2847 1.88062 1.88062 2 11 3
14.3018 1.89098 1.89098 2 11 3
14.3188 1.90135 1.90135 2 11 3
14.3359 1.91172 1.91172 2 11 3
14.353 1.9221 1.9221 2 11 3
14.37 1.93248 1.93248 2 11 3
14.3871 1.94287 1.94287 2 11 3
14.4042 1.95326 1.95326 2 11 3
14.4212 1.96366 1.96366 2 11 3
14.4383 1.97407 1.97407 2 11 3
14.4553 1.98448 1.98448 2 11 3
14.4724 1.99489 1.99489 2 11 3
14.4894 2.00531 2.00531 2 11 3
14.5064 2.01574 2.01574 2 11 3
14.5235 2.02617 2.02617 2 11 3
14.5405 2.03661 2.03661 2 11 3
14.5575 2.04705 2.04705 2 11 3
14.5746 2.05749 2.05749 2 11 3
14.5916 2.06795 2.06795 2 11 3
14.6086 2.0784 2.0784 2 11 3
14.6256 2.08887 2.08887 2 11 3
14.6426 2.09933 2.09933 2 11 3
14.6597 2.10981 2.10981 2 11 3
14.6767 2.12029 2.12029 2 11 3
14.6937 2.13077 2.13077 2 11 3
14.7107 2.14126 2.14126 2 11 3
14.7277 2.15175 2.15175 2 11 3
14.7447 2.16225 2.16225 2 11 3
14.7617 2.17275 2.17275 2 11 3
14.7787 2.18326 2.18326 2 11 3
14.7956 2.19378 2.19378 2 11 3
14.8126 2.2043 2.2043 2 11 3
14.8296 2.21482 2.21482 2 11 3
14.8466 2.22535 2.22535 2 11 3
14.8636 2.23588 2.23588 2 11 3
14.8805 2.24642 2.24642 2 11 3
14.8975 2.25697 2.25697 2 11 3
14.9145 2.26752 2.26752 2 11 3
14.9314 2.27807 2.27807 2 11 3
14.9484 2.28863 2.28863 2 11 3
14.9653 2.2992 2.2992 2 11 3
14.9823 2.30977 2.30977 2 11 3
14.9992 2.32034 2.32034 2 11 3
15.0162 2.33092 2.33092 2 11 3
15.0331 2.3415 2.3415 2 11 3
15.0501 2.35209 2.35209 2 11 3
15.067 2.36269 2.36269 2 11 3
15.0839 2.37329 2.37329 2 11 3
15.1009 2.38389 2.38389 2 11 3
15.1178 2.3945 2.3945 2 11 3
15.1347 2.40511 2.40511 2 11 3
15.1516 2.41573 2.41573 2 11 3
15.1686 2.42636 2.42636 2 11 3
15.1855 2.43699 2.43699 2 11 3
15.2024 2.44762 2.44762 2 11 3
15.2193 2.45826 2.45826 2 11 3
15.2362 2.4689 2.4689 2 11 3
15.2531 2.47955 2.47955 2 11 3
15.27 2.4902 2.4902 2 11 3
15.2869 2.50086 2.50086 2 11 3
15.3038 2.51152 2.51152 2 11 3
15.3207 2.52219 2.52219 2 11 3
15.3376 2.53286 2.53286 2 11 3
15.3545 2.54354 2.54354 2 11 3
15.3714 2.55422 2.55422 2 11 3
15.3882 2.56491 2.56491 2 11 3
15.4051 2.5756 2.5756 2 11 3
15.422 2.58629 2.58629 2 11 3
15.4389 2.59699 2.59699 2 11 3
15.4557 2.6077 2.6077 2 11 3
15.4726 2.61841 2.61841 2 11 3
15.4895 2.62912 2.62912 2 11 3
15.5063 2.63984 2.63984 2 11 3
15.5232 2.65056 2.65056 2 11 3
15.54 2.66129 2.66129 2 11 3
15.5569 2.67203 2.67203 2 11 3
15.5737 2.68276 2.68276 2 11 3
15.5906 2.69351 2.69351 2 11 3
15.6074 2.70425 2.70425 2 11 3
15.6243 2.71501 2.71501 2 11 3
15.6411 2.72576 2.72576 2 11 3
15.6579 2.73652 2.73652 2 11 3
15.6748 2.74729 2.74729 2 11 3
15.6916 2.75806 2.75806 2 11 3
15.7084 2.76883 2.76883 2 11 3
15.7253 2.77961 2.77961 2 11 3
15.7421 2.7904 2.7904 2 11 3
15.7589 2.80118 2.80118 2 11 3
15.7757 2.81198 2.81198 2 11 3
15.7925 2.82277 2.82277 2 11 3
15.8093 2.83358 2.83358 2 11 3
15.8261 2.84438 2.84438 2 11 3
15.8429 2.85519 2.85519 2 11 3
15.8597 2.86601 2.86601 2 11 3
15.8765 2.87683 2.87683 2 11 3
15.8933 2.88765 2.88765 2 11 3
15.9101 2.89848 2.89848 2 11 3
15.9269 2.90931 2.90931 2 11 3
15.9437 2.92015 2.92015 2 11 3
15.9605 2.93099 2.93099 2 11 3
15.9773 2.94184 2.94184 2 11 3
15.994 2.95269 2.95269 2 11 3
16.0108 2.96355 2.96355 2 11 3
16.0276 2.97441 2.97441 2 11 3
16.0444 2.98527 2.98527 2 11 3
16.0611 2.99614 2.99614 2 11 3
16.0779 3.00701 3.00701 2 11 3
16.0946 3.01789 3.01789 2 11 3
16.1114 3.02877 3.02877 2 11 3
16.1282 3.03966 3.03966 2 11 3
16.1449 3.05055 3.05055 2 11 3
16.1617 3.06144 3.06144 2 11 3
16.1784 3.07234 3.07234 2 11 3
16.1952 3.08324 3.08324 2 11 3
16.2119 3.09415 3.09415 2 11 3
16.2286 3.10506 3.10506 2 11 3
16.2454 3.11598 3.11598 2 11 3
16.2621 3.1269 3.1269 2 11 3
16.2788 3.13782 3.13782 2 11 3
16.2956 3.14875 3.14875 2 11 3
16.3123 3.15969 3.15969 2 11 3
16.329 3.17062 3.17062 2 11 3
16.3457 3.18156 3.18156 2 11 3
16.3624 3.19251 3.19251 2 11 3
16.3792 3.20346 3.20346 2 11 3
16.3959 3.21442 3.21442 2 11 3
16.4126 3.22537 3.22537 2 11 3
16.4293 3.23634 3.23634 2 11 3
16.446 3.2473 3.2473 2 11 3
16.4627 3.25827 3.25827 2 11 3
16.4794 3.26925 3.26925 2 11 3
16.4961 3.28023 3.28023 2 11 3
16.5128 3.29121 3.29121 2 11 3
16.5295 3.3022 3.3022 2 11 3
16.5462 3.31319 3.31319 2 11 3
16.5628 3.32419 3.32419 2 11 3
16.5795 3.33519 3.33519 2 11 3
16.5962 3.34619 3.34619 2 11 3
16.6129 3.3572 3.3572 2 11 3
16.6296 3.36821 3.36821 2 11 3
16.6462 3.37923 3.37923 2 11 3
16.6629 3.39025 3.39025 2 11 3
16.6796 3.40128 3.40128 2 11 3
16.6962 3.4123 3.4123 2 11 3
16.7129 3.42334 3.42334 2 11 3
16.7295 3.43437 3.43437 2 11 3
16.7462 3.44542 3.44542 2 11 3
16.7629 3.45646 3.45646 2 11 3
16.7795 3.46751 3.46751 2 11 3
16.7962 3.47856 3.47856 2 11 3
16.8128 3.48962 3.48962 2 11 3
16.8294 3.50068 3.50068 2 11 3
16.8461 3.51175 3.51175 2 11 3
16.8627 3.52282 3.52282 2 11 3
16.8627 3.52282 3.52282 2 11 3
16.896 3.54497 3.54497 2 11 3
16.9126 3.55605 3.55605 2 11 3
16.9292 3.56713 3.56713 2 11 3
16.9459 3.57822 3.57822 2 11 3
16.9625 3.58932 3.58932 2 11 3
16.9791 3.60041 3.60041 2 11 3
16.9957 3.61151 3.61151 2 11 3
17.0123 3.62262 3.62262 2 11 3
17.0289 3.63373 3.63373 2 11 3
17.0456 3.64484 3.64484 2 11 3
17.0622 3.65596 3.65596 2 11 3
17.0788 3.66708 3.66708 2 11 3
17.0954 3.6782 3.6782 2 11 3
17.112 3.68933 3.68933 2 11 3
17.1286 3.70046 3.70046 2 11 3
17.1452 3.7116 3.7116 2 11 3
17.1617 3.72274 3.72274 2 11 3
17.1783 3.73388 3.73388 2 11 3
17.1949 3.74503 3.74503 2 11 3
17.2115 3.75618 3.75618 2 11 3
17.2281 3.76734 3.76734 2 11 3
17.2447 3.7785 3.7785 2 11 3
17.2612 3.78966 3.78966 2 11 3
17.2778 3.80083 3.80083 2 11 3
17.2944 3.812 3.812 2 11 3
17.3109 3.82317 3.82317 2 11 3
17.3275 3.83435 3.83435 2 11 3
17.3441 3.84553 3.84553 2 11 3
17.3606 3.85672 3.85672 2 11 3
17.3772 3.86791 3.86791 2 11 3
17.3937 3.8791 3.8791 2 11 3
17.4103 3.8903 3.8903 2 11 3
17.4269 3.9015 3.9015 2 11 3
17.4434 3.9127 3.9127 2 11 3
17.4599 3.92391 3.92391 2 11 3
17.4765 3.93512 3.93512 2 11 3
17.493 3.94634 3.94634 2 11 3
17.5096 3.95756 3.95756 2 11 3
17.5261 3.96878 3.96878 2 11 3
17.5426 3.98001 3.98001 2 11 3
17.5592 3.99124 3.99124 2 11 3
17.5757 4.00248 4.00248 2 11 3
17.5922 4.01371 4.01371 2 11 3
17.6087 4.02496 4.02496 2 11 3
17.6253 4.0362 4.0362 2 11 3
17.6418 4.04745 4.04745 2 11 3
17.6583 4.0587 4.0587 2 11 3
17.6748 4.06996 4.06996 2 11 3
17.6913 4.08122 4.08122 2 11 3
17.7078 4.09248 4.09248 2 11 3
17.7243 4.10375 4.10375 2 11 3
17.7408 4.11502 4.11502 2 11 3
17.7573 4.1263 4.1263 2 11 3
17.7738 4.13758 4.13758 2 11 3
17.7903 4.14886 4.14886 2 11 3
17.8068 4.16014 4.16014 2 11 3
17.8233 4.17143 4.17143 2 11 3
17.8398 4.18273 4.18273 2 11 3
17.8563 4.19402 4.19402 2 11 3
17.8728 4.20532 4.20532 2 11 3
17.8893 4.21663 4.21663 2 11 3
17.9057 4.22793 4.22793 2 11 3
17.9222 4.23924 4.23924 2 11 3
17.9387 4.25056 4.25056 2 11 3
17.9552 4.26188 4.26188 2 11 3
17.9716 4.2732 4.2732 2 11 3
17.9881 4.28452 4.28452 2 11 3
18.0046 4.29585 4.29585 2 11 3
18.021 4.30718 4.30718 2 11 3
18.0375 4.31852 4.31852 2 11 3
18.0539 4.32986 4.32986 2 11 3
18.0704 4.3412 4.3412 2 11 3
18.0868 4.35255 4.35255 2 11 3
18.1033 4.3639 4.3639 2 11 3
18.1197 4.37525 4.37525 2 11 3
18.1362 4.38661 4.38661 2 11 3
18.1526 4.39797 4.39797 2 11 3
18.1691 4.40933 4.40933 2 11 3
18.1855 4.4207 4.4207 2 11 3
18.2019 4.43207 4.43207 2 11 3
18.2184 4.44344 4.44344 2 11 3
18.2348 4.45482 4.45482 2 11 3
18.2512 4.4662 4.4662 2 11 3
18.2677 4.47759 4.47759 2 11 3
18.2841 4.48897 4.48897 2 11 3
18.3005 4.50036 4.50036 2 11 3
18.3169 4.51176 4.51176 2 11 3
18.3334 4.52316 4.52316 2 11 3
18.3498 4.53456 4.53456 2 11 3
18.3662 4.54596 4.54596 2 11 3
18.3826 4.55737 4.55737 2 11 3
18.399 4.56878 4.56878 2 11 3
18.4154 4.5802 4.5802 2 11 3
18.4318 4.59162 4.59162 2 11 3
18.4482 4.60304 4.60304 2 11 3
18.4646 4.61447 4.61447 2 11 3
18.481 4.62589 4.62589 2 11 3
18.4974 4.63733 4.63733 2 11 3
18.5138 4.64876 4.64876 2 11 3
18.5302 4.6602 4.6602 2 11 3
18.5466 4.67164 4.67164 2 11 3
18.563 4.68309 4.68309 2 11 3
18.5793 4.69454 4.69454 2 11 3
18.5957 4.70599 4.70599 2 11 3
18.6121 4.71744 4.71744 2 11 3
18.6285 4.7289 4.7289 2 11 3
18.6448 4.74036 4.74036 2 11 3
18.6612 4.75183 4.75183 2 11 3
18.6776 4.7633 4.7633 2 11 3
18.6939 4.77477 4.77477 2 11 3
18.7103 4.78625 4.78625 2 11 3
18.7267 4.79772 4.79772 2 11 3
18.743 4.80921 4.80921 2 11 3
18.7594 4.82069 4.82069 2 11 3
18.7757 4.83218 4.83218 2 11 3
18.7921 4.84367 4.84367 2 11 3
18.8085 4.85517 4.85517 2 11 3
18.8248 4.86667 4.86667 2 11 3
18.8411 4.87817 4.87817 2 11 3
18.8575 4.88967 4.88967 2 11 3
18.8738 4.90118 4.90118 2 11 3
18.8902 4.91269 4.91269 2 11 3
18.9065 4.9242 4.9242 2 11 3
18.9228 4.93572 4.93572 2 11 3
18.9392 4.94724 4.94724 2 11 3
18.9555 4.95877 4.95877 2 11 3
18.9718 4.97029 4.97029 2 11 3
18.9882 4.98183 4.98183 2 11 3
19.0045 4.99336 4.99336 2 11 3
19.0208 5.0049 5.0049 2 11 3
19.0371 5.01644 5.01644 2 11 3
19.0534 5.02798 5.02798 2 11 3
19.0698 5.03953 5.03953 2 11 3
19.0861 5.05108 5.05108 2 11 3
19.1024 5.06263 5.06263 2 11 3
19.1187 5.07418 5.07418 2 11 3
19.135 5.08574 5.08574 2 11 3
19.1513 5.09731 5.09731 2 11 3
19.1676 5.10887 5.10887 2 11 3
19.1839 5.12044 5.12044 2 11 3
19.2002 5.13201 5.13201 2 11 3
19.2165 5.14359 5.14359 2 11 3
19.2328 5.15516 5.15516 2 11 3
19.2491 5.16674 5.16674 2 11 3
19.2654 5.17833 5.17833 2 11 3
19.2816 5.18992 5.18992 2 11 3
19.2979 5.20151 5.20151 2 11 3
19.3142 5.2131 5.2131 2 11 3
19.3305 5.2247 5.2247 2 11 3
19.3468 5.2363 5.2363 2 11 3
19.363 5.2479 5.2479 2 11 3
19.3793 5.25951 5.25951 2 11 3
19.3956 5.27111 5.27111 2 11 3
19.4119 5.28273 5.28273 2 11 3
19.4281 5.29434 5.29434 2 11 3
19.4444 5.30596 5.30596 2 11 3
19.4607 5.31758 5.31758 2 11 3
19.4769 5.32921 5.32921 2 11 3
19.4932 5.34083 5.34083 2 11 3
19.5094 5.35246 5.35246 2 11 3
19.5257 5.3641 5.3641 2 11 3
19.5419 5.37573 5.37573 2 11 3
19.5582 5.38737 5.38737 2 11 3
19.5744 5.39902 5.39902 2 11 3
19.5907 5.41066 5.41066 2 11 3
19.6069 5.42231 5.42231 2 11 3
19.6232 5.43396 5.43396 2 11 3
19.6394 5.44562 5.44562 2 11 3
19.6556 5.45727 5.45727 2 11 3
19.6719 5.46893 5.46893 2 11 3
19.6881 5.4806 5.4806 2 11 3
19.7043 5.49226 5.49226 2 11 3
19.7206 5.50393 5.50393 2 11 3
19.7368 5.51561 5.51561 2 11 3
19.753 5.52728 5.52728 2 11 3
19.7692 5.53896 5.53896 2 11 3
19.7854 5.55064 5.55064 2 11 3
19.8017 5.56233 5.56233 2 11 3
19.8179 5.57401 5.57401 2 11 3
19.8341 5.5857 5.5857 2 11 3
19.8503 5.5974 5.5974 2 11 3
19.8665 5.60909 5.60909 2 11 3
19.8827 5.62079 5.62079 2 11 3
19.8989 5.6325 5.6325 2 11 3
19.9151 5.6442 5.6442 2 11 3
19.9313 5.65591 5.65591 2 11 3
19.9475 5.66762 5.66762 2 11 3
19.9637 5.67933 5.67933 2 11 3
19.9799 5.69105 5.69105 2 11 3
19.9961 5.70277 5.70277 2 11 3
20.0123 5.71449 5.71449 2 11 3
20.0285 5.72622 5.72622 2 11 3
20.0447 5.73795 5.73795 2 11 3
20.0609 5.74968 5.74968 2 11 3
20.077 5.76141 5.76141 2 11 3
20.0932 5.77315 5.77315 2 11 3
20.1094 5.78489 5.78489 2 11 3
20.1256 5.79663 5.79663 2 11 3
20.1418 5.80838 5.80838 2 11 3
14.3359 1.91172 1.91172 2 11 3
14.3018 1.89098 1.89098 2 11 3
14.2847 1.88062 1.88062 2 11 3
14.2676 1.87027 1.87027 2 11 3
14.2505 1.85991 1.85991 2 11 3
14.2334 1.84957 1.84957 2 11 3
14.2163 1.83923 1.83923 2 11 3
14.1992 1.8289 1.8289 2 11 3
14.1822 1.81857 1.81857 2 11 3
14.1651 1.80824 1.80824 2 11 3
14.1479 1.79793 1.79793 2 11 3
14.1308 1.78762 1.78762 2 11 3
14.1137 1.77731 1.77731 2 11 3
14.0966 1.76701 1.76701 2 11 3
14.0795 1.75671 1.75671 2 11 3
14.0624 1.74642 1.74642 2 11 3
14.0453 1.73614 1.73614 2 11 3
14.0281 1.72586 1.72586 2 11 3
14.011 1.71559 1.71559 2 11 3
13.9939 1.70532 1.70532 2 11 3
13.9767 1.69506 1.69506 2 11 3
13.9596 1.6848 1.6848 2 11 3
13.9424 1.67455 1.67455 2 11 3
13.9253 1.66431 1.66431 2 11 3
13.9082 1.65407 1.65407 2 11 3
13.891 1.64384 1.64384 2 11 3
13.8738 1.63361 1.63361 2 11 3
13.8567 1.62339 1.62339 2 11 3
13.8395 1.61317 1.61317 2 11 3
13.8224 1.60296 1.60296 2 11 3
13.8052 1.59276 1.59276 2 11 3
13.788 1.58256 1.58256 2 11 3
13.7708 1.57237 1.57237 2 11 3
13.7537 1.56218 1.56218 2 11 3
13.7365 1.552 1.552 2 11 3
13.7193 1.54182 1.54182 2 11 3
13.7021 1.53165 1.53165 2 11 3
13.6849 1.52149 1.52149 2 11 3
13.6677 1.51133 1.51133 2 11 3
13.6505 1.50118 1.50118 2 11 3
13.6333 1.49104 1.49104 2 11 3
13.6161 1.4809 1.4809 2 11 3
13.5989 1.47076 1.47076 2 11 3
13.5817 1.46064 1.46064 2 11 3
13.5645 1.45051 1.45051 2 11 3
13.5472 1.4404 1.4404 2 11 3
13.53 1.43029 1.43029 2 11 3
13.5128 1.42018 1.42018 2 11 3
13.4956 1.41009 1.41009 2 11 3
13.4783 1.39999 1.39999 2 11 3
13.4611 1.38991 1.38991 2 11 3
13.4438 1.37983 1.37983 2 11 3
13.4266 1.36976 1.36976 2 11 3
13.4093 1.35969 1.35969 2 11 3
13.3921 1.34963 1.34963 2 11 3
13.3748 1.33957 1.33957 2 11 3
13.3576 1.32952 1.32952 2 11 3
13.3403 1.31948 1.31948 2 11 3
13.3231 1.30944 1.30944 2 11 3
13.3058 1.29941 1.29941 2 11 3
13.2885 1.28939 1.28939 2 11 3
13.2712 1.27937 1.27937 2 11 3
13.254 1.26936 1.26936 2 11 3
13.2367 1.25935 1.25935 2 11 3
13.2194 1.24936 1.24936 2 11 3
13.2021 1.23936 1.23936 2 11 3
13.1848 1.22938 1.22938 2 11 3
13.1675 1.2194 1.2194 2 11 3
13.1502 1.20942 1.20942 2 11 3
13.1329 1.19945 1.19945 2 11 3
13.1156 1.18949 1.18949 2 11 3
13.0983 1.17954 1.17954 2 11 3
13.081 1.16959 1.16959 2 11 3
13.0636 1.15965 1.15965 2 11 3
13.0463 1.14971 1.14971 2 11 3
13.029 1.13978 1.13978 2 11 3
13.0117 1.12986 1.12986 2 11 3
12.9943 1.11994 1.11994 2 11 3
12.977 1.11003 1.11003 2 11 3
12.9597 1.10013 1.10013 2 11 3
12.9423 1.09024 1.09024 2 11 3
12.925 1.08034 1.08034 2 11 3
12.9076 1.07046 1.07046 2 11 3
12.8903 1.06058 1.06058 2 11 3
12.8729 1.05071 1.05071 2 11 3
12.8555 1.04085 1.04085 2 11 3
12.8382 1.03099 1.03099 2 11 3
12.8208 1.02114 1.02114 2 11 3
12.8034 1.0113 1.0113 2 11 3
12.7861 1.00146 1.00146 2 11 3
12.7687 0.991631 0.991631 2 11 3
12.7513 0.981807 0.981807 2 11 3
12.7339 0.97199 0.97199 2 11 3
12.7165 0.96218 0.96218 2 11 3
12.6991 0.952376 0.952376 2 11 3
12.6817 0.942579 0.942579 2 11 3
12.6643 0.932789 0.932789 2 11 3
12.6469 0.923006 0.923006 2 11 3
12.6295 0.91323 0.91323 2 11 3
12.6121 0.90346 0.90346 2 11 3
12.5947 0.893697 0.893697 2 11 3
12.5773 0.883942 0.883942 2 11 3
12.5598 0.874193 0.874193 2 11 3
12.5424 0.864451 0.864451 2 11 3
12.525 0.854716 0.854716 2 11 3
12.5075 0.844988 0.844988 2 11 3
12.4901 0.835267 0.835267 2 11 3
12.4727 0.825552 0.825552 2 11 3
12.4552 0.815845 0.815845 2 11 3
12.4378 0.806145 0.806145 2 11 3
12.4203 0.796452 0.796452 2 11 3
12.4028 0.786766 0.786766 2 11 3
12.3854 0.777087 0.777087 2 11 3
12.3679 0.767415 0.767415 2 11 3
12.3504 0.757751 0.757751 2 11 3
12.333 0.748093 0.748093 2 11 3
12.3155 0.738443 0.738443 2 11 3
12.298 0.7288 0.7288 2 11 3
12.2805 0.719164 0.719164 2 11 3
12.263 0.709535 0.709535 2 11 3
12.2455 0.699913 0.699913 2 11 3
12.228 0.690299 0.690299 2 11 3
12.2105 0.680692 0.680692 2 11 3
12.193 0.671092 0.671092 2 11 3
12.1755 0.6615 0.6615 2 11 3
12.158 0.651914 0.651914 2 11 3
12.1405 0.642336 0.642336 2 11 3
12.123 0.632766 0.632766 2 11 3
12.1055 0.623203 0.623203 2 11 3
12.0879 0.613647 0.613647 2 11 3
12.0704 0.604099 0.604099 2 11 3
12.0529 0.594558 0.594558 2 11 3
12.0353 0.585025 0.585025 2 11 3
12.0178 0.575499 0.575499 2 11 3
12.0002 0.565981 0.565981 2 11 3
11.9827 0.55647 0.55647 2 11 3
11.9651 0.546967 0.546967 2 11 3
11.9476 0.537471 0.537471 2 11 3
11.93 0.527983 0.527983 2 11 3
11.9124 0.518503 0.518503 2 11 3
11.8949 0.50903 0.50903 2 11 3
11.8773 0.499564 0.499564 2 11 3
11.8597 0.490107 0.490107 2 11 3
11.8421 0.480657 0.480657 2 11 3
11.8246 0.471215 0.471215 2 11 3
11.807 0.461781 0.461781 2 11 3
11.7894 0.452354 0.452354 2 11 3
11.7718 0.442935 0.442935 2 11 3
11.7542 0.433524 0.433524 2 11 3
11.7366 0.424121 0.424121 2 11 3
11.7189 0.414725 0.414725 2 11 3
11.7013 0.405338 0.405338 2 11 3
11.6837 0.395958 0.395958 2 11 3
11.6661 0.386587 0.386587 2 11 3
11.6485 0.377223 0.377223 2 11 3
11.6308 0.367867 0.367867 2 11 3
11.6132 0.358519 0.358519 2 11 3
11.5956 0.349179 0.349179 2 11 3
11.5779 0.339847 0.339847 2 11 3
11.5603 0.330524 0.330524 2 11 3
11.5426 0.321208 0.321208 2 11 3
11.525 0.3119 0.3119 2 11 3
11.5073 0.302601 0.302601 2 11 3
11.4896 0.293309 0.293309 2 11 3
11.472 0.284026 0.284026 2 11 3
11.4543 0.274751 0.274751 2 11 3
11.4366 0.265484 0.265484 2 11 3
11.4189 0.256226 0.256226 2 11 3
11.4013 0.246975 0.246975 2 11 3
11.3836 0.237733 0.237733 2 11 3
11.3659 0.228499 0.228499 2 11 3
11.3482 0.219274 0.219274 2 11 3
11.3305 0.210057 0.210057 2 11 3
11.3128 0.200848 0.200848 2 11 3
11.2951 0.191648 0.191648 2 11 3
11.2773 0.182456 0.182456 2 11 3
11.2596 0.173272 0.173272 2 11 3
11.2419 0.164097 0.164097 2 11 3
11.2242 0.154931 0.154931 2 11 3
11.2064 0.145773 0.145773 2 11 3
11.1887 0.136623 0.136623 2 11 3
11.171 0.127482 0.127482 2 11 3
11.1532 0.11835 0.11835 2 11 3
11.1355 0.109226 0.109226 2 11 3
11.1177 0.100111 0.100111 2 11 3
11.1 0.0910047 0.0910047 2 11 3
11.0822 0.0819072 0.0819072 2 11 3
11.0644 0.0728182 0.0728182 2 11 3
11.0467 0.063738 0.063738 2 11 3
11.0289 0.0546665 0.0546665 2 11 3
11.0111 0.0456037 0.0456037 2 11 3
10.9933 0.03655 0.03655 2 11 3
10.9756 0.027505 0.027505 2 11 3
10.9578 0.0184691 0.0184691 2 11 3
10.94 0.00944167 0.00944167 2 11 3
10.9222 0.00042371 0.00042371 2 11 3
10.9044 -0.0085858 -0.0085858 2 11 3
10.8866 -0.0175862 -0.0175862 2 11 3
10.8688 -0.0265774 -0.0265774 2 11 3
10.8509 -0.0355596 -0.0355596 2 11 3
