8.37305 18.0544 18.0544 2 5 3
8.37152 18.0743 18.0743 2 5 3
8.37 18.0942 18.0942 2 5 3
8.36847 18.1141 18.1141 2 5 3
8.36695 18.134 18.134 2 5 3
8.36543 18.1539 18.1539 2 5 3
8.36392 18.1738 18.1738 2 5 3
8.3624 18.1937 18.1937 2 5 3
8.36089 18.2136 18.2136 2 5 3
8.35939 18.2335 18.2335 2 5 3
8.35788 18.2534 18.2534 2 5 3
8.72302 14.28 14.28 2 5 3
8.72716 14.2403 14.2403 2 5 3
8.72955 14.2205 14.2205 2 5 3
8.73179 14.2007 14.2007 2 5 3
8.73403 14.1809 14.1809 2 5 3
8.73628 14.1611 14.1611 2 5 3
8.73853 14.1413 14.1413 2 5 3
8.74079 14.1215 14.1215 2 5 3
8.74306 14.1017 14.1017 2 5 3
8.74532 14.0819 14.0819 2 5 3
8.7476 14.0621 14.0621 2 5 3
8.74988 14.0423 14.0423 2 5 3
8.75216 14.0225 14.0225 2 5 3
8.75445 14.0027 14.0027 2 5 3
8.75674 13.9829 13.9829 2 5 3
8.75904 13.9631 13.9631 2 5 3
8.76135 13.9433 13.9433 2 5 3
8.76366 13.9235 13.9235 2 5 3
8.76597 13.9037 13.9037 2 5 3
8.76829 13.8839 13.8839 2 5 3
8.77062 13.8641 13.8641 2 5 3
8.77295 13.8443 13.8443 2 5 3
8.77529 13.8246 13.8246 2 5 3
8.77763 13.8048 13.8048 2 5 3
8.77998 13.785 13.785 2 5 3
8.78233 13.7652 13.7652 2 5 3
8.78469 13.7454 13.7454 2 5 3
8.78705 13.7256 13.7256 2 5 3
8.78942 13.7058 13.7058 2 5 3
8.79179 13.686 13.686 2 5 3
8.79417 13.6663 13.6663 2 5 3
8.79656 13.6465 13.6465 2 5 3
8.79895 13.6267 13.6267 2 5 3
8.80134 13.6069 13.6069 2 5 3
8.80375 13.5871 13.5871 2 5 3
8.80615 13.5673 13.5673 2 5 3
8.80856 13.5476 13.5476 2 5 3
8.81098 13.5278 13.5278 2 5 3
8.81341 13.508 13.508 2 5 3
8.81584 13.4882 13.4882 2 5 3
8.81827 13.4685 13.4685 2 5 3
8.82071 13.4487 13.4487 2 5 3
8.82316 13.4289 13.4289 2 5 3
8.82561 13.4091 13.4091 2 5 3
8.82807 13.3894 13.3894 2 5 3
8.83054 13.3696 13.3696 2 5 3
8.83301 13.3498 13.3498 2 5 3
8.83548 13.3301 13.3301 2 5 3
8.83796 13.3103 13.3103 2 5 3
8.84045 13.2905 13.2905 2 5 3
8.84294 13.2708 13.2708 2 5 3
8.84544 13.251 13.251 2 5 3
8.84795 13.2312 13.2312 2 5 3
8.85046 13.2115 13.2115 2 5 3
8.85298 13.1917 13.1917 2 5 3
8.8555 13.172 13.172 2 5 3
8.85803 13.1522 13.1522 2 5 3
8.86056 13.1324 13.1324 2 5 3
8.86311 13.1127 13.1127 2 5 3
8.86565 13.0929 13.0929 2 5 3
8.86821 13.0732 13.0732 2 5 3
8.87077 13.0534 13.0534 2 5 3
8.87333 13.0337 13.0337 2 5 3
8.8759 13.0139 13.0139 2 5 3
8.87848 12.9942 12.9942 2 5 3
8.88107 12.9744 12.9744 2 5 3
8.88366 12.9547 12.9547 2 5 3
8.88625 12.9349 12.9349 2 5 3
8.88886 12.9152 12.9152 2 5 3
8.89147 12.8954 12.8954 2 5 3
8.89408 12.8757 12.8757 2 5 3
8.89671 12.856 12.856 2 5 3
8.89934 12.8362 12.8362 2 5 3
8.90197 12.8165 12.8165 2 5 3
8.90461 12.7967 12.7967 2 5 3
8.90726 12.777 12.777 2 5 3
8.90992 12.7573 12.7573 2 5 3
8.91258 12.7375 12.7375 2 5 3
8.91525 12.7178 12.7178 2 5 3
8.91792 12.6981 12.6981 2 5 3
8.9206 12.6784 12.6784 2 5 3
8.92329 12.6586 12.6586 2 5 3
8.92598 12.6389 12.6389 2 5 3
8.92868 12.6192 12.6192 2 5 3
8.93139 12.5994 12.5994 2 5 3
8.93411 12.5797 12.5797 2 5 3
8.93683 12.56 12.56 2 5 3
8.93956 12.5403 12.5403 2 5 3
8.94229 12.5206 12.5206 2 5 3
8.94503 12.5008 12.5008 2 5 3
8.94778 12.4811 12.4811 2 5 3
8.95054 12.4614 12.4614 2 5 3
8.9533 12.4417 12.4417 2 5 3
8.95607 12.422 12.422 2 5 3
8.95885 12.4023 12.4023 2 5 3
8.96163 12.3826 12.3826 2 5 3
8.96442 12.3628 12.3628 2 5 3
8.96722 12.3431 12.3431 2 5 3
8.97003 12.3234 12.3234 2 5 3
8.97284 12.3037 12.3037 2 5 3
8.97566 12.284 12.284 2 5 3
8.97848 12.2643 12.2643 2 5 3
8.98132 12.2446 12.2446 2 5 3
8.98416 12.2249 12.2249 2 5 3
8.98701 12.2052 12.2052 2 5 3
8.98986 12.1855 12.1855 2 5 3
8.99273 12.1658 12.1658 2 5 3
8.9956 12.1461 12.1461 2 5 3
8.99847 12.1265 12.1265 2 5 3
9.00136 12.1068 12.1068 2 5 3
9.00425 12.0871 12.0871 2 5 3
9.00715 12.0674 12.0674 2 5 3
9.01006 12.0477 12.0477 2 5 3
9.01298 12.028 12.028 2 5 3
9.0159 12.0083 12.0083 2 5 3
9.01883 11.9887 11.9887 2 5 3
9.02177 11.969 11.969 2 5 3
9.02471 11.9493 11.9493 2 5 3
9.02767 11.9296 11.9296 2 5 3
9.03063 11.9099 11.9099 2 5 3
9.0336 11.8903 11.8903 2 5 3
9.03657 11.8706 11.8706 2 5 3
9.03956 11.8509 11.8509 2 5 3
9.04255 11.8313 11.8313 2 5 3
9.04555 11.8116 11.8116 2 5 3
9.04856 11.7919 11.7919 2 5 3
9.05158 11.7723 11.7723 2 5 3
9.0546 11.7526 11.7526 2 5 3
9.05763 11.733 11.733 2 5 3
9.06068 11.7133 11.7133 2 5 3
9.06372 11.6936 11.6936 2 5 3
9.06678 11.674 11.674 2 5 3
9.06985 11.6543 11.6543 2 5 3
9.07292 11.6347 11.6347 2 5 3
9.076 11.615 11.615 2 5 3
9.07909 11.5954 11.5954 2 5 3
9.08219 11.5757 11.5757 2 5 3
9.0853 11.5561 11.5561 2 5 3
9.08841 11.5365 11.5365 2 5 3
9.09153 11.5168 11.5168 2 5 3
9.09467 11.4972 11.4972 2 5 3
9.09781 11.4775 11.4775 2 5 3
9.10096 11.4579 11.4579 2 5 3
9.10411 11.4383 11.4383 2 5 3
9.10728 11.4186 11.4186 2 5 3
9.11045 11.399 11.399 2 5 3
9.11364 11.3794 11.3794 2 5 3
9.11683 11.3598 11.3598 2 5 3
9.12003 11.3401 11.3401 2 5 3
9.12324 11.3205 11.3205 2 5 3
9.12646 11.3009 11.3009 2 5 3
9.12969 11.2813 11.2813 2 5 3
9.13292 11.2617 11.2617 2 5 3
9.13617 11.2421 11.2421 2 5 3
9.13942 11.2224 11.2224 2 5 3
9.14269 11.2028 11.2028 2 5 3
9.14596 11.1832 11.1832 2 5 3
9.14924 11.1636 11.1636 2 5 3
9.15253 11.144 11.144 2 5 3
9.15583 11.1244 11.1244 2 5 3
9.15914 11.1048 11.1048 2 5 3
9.16246 11.0852 11.0852 2 5 3
9.16579 11.0656 11.0656 2 5 3
9.16913 11.046 11.046 2 5 3
9.17247 11.0265 11.0265 2 5 3
9.17583 11.0069 11.0069 2 5 3
9.17919 10.9873 10.9873 2 5 3
9.18257 10.9677 10.9677 2 5 3
9.18595 10.9481 10.9481 2 5 3
9.18935 10.9285 10.9285 2 5 3
9.19275 10.909 10.909 2 5 3
9.19616 10.8894 10.8894 2 5 3
9.19959 10.8698 10.8698 2 5 3
9.20302 10.8503 10.8503 2 5 3
9.20646 10.8307 10.8307 2 5 3
9.20992 10.8111 10.8111 2 5 3
9.21338 10.7916 10.7916 2 5 3
9.21685 10.772 10.772 2 5 3
9.22033 10.7524 10.7524 2 5 3
9.22383 10.7329 10.7329 2 5 3
9.22733 10.7133 10.7133 2 5 3
9.23084 10.6938 10.6938 2 5 3
9.23437 10.6742 10.6742 2 5 3
9.2379 10.6547 10.6547 2 5 3
9.24144 10.6351 10.6351 2 5 3
9.245 10.6156 10.6156 2 5 3
9.24856 10.5961 10.5961 2 5 3
9.25213 10.5765 10.5765 2 5 3
9.25572 10.557 10.557 2 5 3
9.25932 10.5375 10.5375 2 5 3
9.26292 10.518 10.518 2 5 3
9.26654 10.4984 10.4984 2 5 3
9.27017 10.4789 10.4789 2 5 3
9.2738 10.4594 10.4594 2 5 3
9.27745 10.4399 10.4399 2 5 3
9.28111 10.4204 10.4204 2 5 3
9.28478 10.4008 10.4008 2 5 3
9.28846 10.3813 10.3813 2 5 3
9.29216 10.3618 10.3618 2 5 3
9.29586 10.3423 10.3423 2 5 3
8.72302 0.14 0.14 2 5 3
8.73632 0.177501 0.177501 2 5 3
8.74326 0.196139 0.196139 2 5 3
8.75007 0.214826 0.214826 2 5 3
8.75689 0.23351 0.23351 2 5 3
8.76372 0.252191 0.252191 2 5 3
8.77055 0.270869 0.270869 2 5 3
8.7774 0.289543 0.289543 2 5 3
8.78426 0.308214 0.308214 2 5 3
8.79112 0.326882 0.326882 2 5 3
8.79799 0.345546 0.345546 2 5 3
8.80487 0.364207 0.364207 2 5 3
8.81176 0.382864 0.382864 2 5 3
8.81866 0.401518 0.401518 2 5 3
8.82557 0.420169 0.420169 2 5 3
8.83248 0.438817 0.438817 2 5 3
8.83941 0.457461 0.457461 2 5 3
8.84634 0.476102 0.476102 2 5 3
8.85329 0.494739 0.494739 2 5 3
8.86024 0.513373 0.513373 2 5 3
8.8672 0.532003 0.532003 2 5 3
8.87417 0.55063 0.55063 2 5 3
8.88115 0.569254 0.569254 2 5 3
8.88813 0.587874 0.587874 2 5 3
8.89513 0.606491 0.606491 2 5 3
8.90214 0.625104 0.625104 2 5 3
8.90915 0.643713 0.643713 2 5 3
8.91617 0.66232 0.66232 2 5 3
8.92321 0.680922 0.680922 2 5 3
8.93025 0.699521 0.699521 2 5 3
8.9373 0.718117 0.718117 2 5 3
8.94436 0.736709 0.736709 2 5 3
8.95142 0.755298 0.755298 2 5 3
8.9585 0.773883 0.773883 2 5 3
8.96559 0.792464 0.792464 2 5 3
8.97268 0.811042 0.811042 2 5 3
8.97979 0.829617 0.829617 2 5 3
8.9869 0.848187 0.848187 2 5 3
8.99402 0.866755 0.866755 2 5 3
9.00116 0.885318 0.885318 2 5 3
9.0083 0.903878 0.903878 2 5 3
9.01545 0.922434 0.922434 2 5 3
9.02261 0.940987 0.940987 2 5 3
9.02977 0.959536 0.959536 2 5 3
9.03695 0.978081 0.978081 2 5 3
9.04414 0.996623 0.996623 2 5 3
9.05133 1.01516 1.01516 2 5 3
9.05854 1.0337 1.0337 2 5 3
9.06575 1.05223 1.05223 2 5 3
9.07298 1.07075 1.07075 2 5 3
9.08021 1.08928 1.08928 2 5 3
9.08745 1.1078 1.1078 2 5 3
9.0947 1.12631 1.12631 2 5 3
9.10196 1.14482 1.14482 2 5 3
9.10923 1.16333 1.16333 2 5 3
9.11651 1.18184 1.18184 2 5 3
9.1238 1.20034 1.20034 2 5 3
9.1311 1.21883 1.21883 2 5 3
9.13841 1.23733 1.23733 2 5 3
9.14572 1.25581 1.25581 2 5 3
9.15305 1.2743 1.2743 2 5 3
9.16038 1.29278 1.29278 2 5 3
9.16773 1.31126 1.31126 2 5 3
9.17508 1.32973 1.32973 2 5 3
9.18245 1.3482 1.3482 2 5 3
9.18982 1.36667 1.36667 2 5 3
9.1972 1.38513 1.38513 2 5 3
9.20459 1.40359 1.40359 2 5 3
9.21199 1.42204 1.42204 2 5 3
9.2194 1.44049 1.44049 2 5 3
9.22682 1.45894 1.45894 2 5 3
9.23425 1.47738 1.47738 2 5 3
9.24169 1.49582 1.49582 2 5 3
9.24914 1.51426 1.51426 2 5 3
9.2566 1.53269 1.53269 2 5 3
9.26407 1.55111 1.55111 2 5 3
9.27155 1.56954 1.56954 2 5 3
9.27903 1.58796 1.58796 2 5 3
9.28653 1.60637 1.60637 2 5 3
9.29404 1.62478 1.62478 2 5 3
9.30155 1.64319 1.64319 2 5 3
9.30908 1.66159 1.66159 2 5 3
9.31661 1.67999 1.67999 2 5 3
9.32416 1.69838 1.69838 2 5 3
9.33171 1.71677 1.71677 2 5 3
9.33927 1.73516 1.73516 2 5 3
9.34685 1.75354 1.75354 2 5 3
9.35443 1.77192 1.77192 2 5 3
9.36202 1.79029 1.79029 2 5 3
9.36963 1.80866 1.80866 2 5 3
9.37724 1.82703 1.82703 2 5 3
9.38486 1.84539 1.84539 2 5 3
9.39249 1.86375 1.86375 2 5 3
9.40014 1.8821 1.8821 2 5 3
9.40779 1.90045 1.90045 2 5 3
9.41545 1.91879 1.91879 2 5 3
9.42312 1.93713 1.93713 2 5 3
9.4308 1.95547 1.95547 2 5 3
9.43849 1.9738 1.9738 2 5 3
9.44619 1.99213 1.99213 2 5 3
9.4539 2.01045 2.01045 2 5 3
9.46162 2.02877 2.02877 2 5 3
9.46935 2.04709 2.04709 2 5 3
9.47709 2.0654 2.0654 2 5 3
9.48484 2.0837 2.0837 2 5 3
9.4926 2.10201 2.10201 2 5 3
9.50037 2.1203 2.1203 2 5 3
9.50815 2.1386 2.1386 2 5 3
9.51594 2.15689 2.15689 2 5 3
9.52374 2.17517 2.17517 2 5 3
9.53155 2.19345 2.19345 2 5 3
9.53937 2.21173 2.21173 2 5 3
9.5472 2.23 2.23 2 5 3
9.55504 2.24826 2.24826 2 5 3
9.56289 2.26653 2.26653 2 5 3
9.57075 2.28478 2.28478 2 5 3
9.57862 2.30304 2.30304 2 5 3
9.5865 2.32129 2.32129 2 5 3
9.59439 2.33953 2.33953 2 5 3
9.60229 2.35777 2.35777 2 5 3
9.6102 2.37601 2.37601 2 5 3
9.61812 2.39424 2.39424 2 5 3
9.62605 2.41247 2.41247 2 5 3
9.63399 2.43069 2.43069 2 5 3
9.64194 2.44891 2.44891 2 5 3
9.6499 2.46712 2.46712 2 5 3
9.65787 2.48533 2.48533 2 5 3
9.66585 2.50353 2.50353 2 5 3
9.67384 2.52173 2.52173 2 5 3
9.68184 2.53992 2.53992 2 5 3
9.68985 2.55811 2.55811 2 5 3
9.69787 2.5763 2.5763 2 5 3
9.70591 2.59448 2.59448 2 5 3
9.71395 2.61266 2.61266 2 5 3
9.722 2.63083 2.63083 2 5 3
9.73006 2.64899 2.64899 2 5 3
9.73814 2.66716 2.66716 2 5 3
9.74622 2.68531 2.68531 2 5 3
9.75431 2.70347 2.70347 2 5 3
9.76242 2.72161 2.72161 2 5 3
9.77053 2.73976 2.73976 2 5 3
9.77866 2.7579 2.7579 2 5 3
9.78679 2.77603 2.77603 2 5 3
9.79494 2.79416 2.79416 2 5 3
9.80309 2.81228 2.81228 2 5 3
9.81126 2.8304 2.8304 2 5 3
9.81943 2.84852 2.84852 2 5 3
9.82762 2.86663 2.86663 2 5 3
9.83582 2.88473 2.88473 2 5 3
9.84402 2.90283 2.90283 2 5 3
9.85224 2.92092 2.92092 2 5 3
9.86047 2.93901 2.93901 2 5 3
9.86871 2.9571 2.9571 2 5 3
9.87696 2.97518 2.97518 2 5 3
9.88522 2.99326 2.99326 2 5 3
9.89349 3.01133 3.01133 2 5 3
9.90177 3.02939 3.02939 2 5 3
9.91006 3.04745 3.04745 2 5 3
9.91836 3.06551 3.06551 2 5 3
9.92667 3.08356 3.08356 2 5 3
9.935 3.1016 3.1016 2 5 3
9.94333 3.11964 3.11964 2 5 3
9.95168 3.13768 3.13768 2 5 3
9.96003 3.15571 3.15571 2 5 3
9.96839 3.17374 3.17374 2 5 3
9.97677 3.19176 3.19176 2 5 3
9.98516 3.20977 3.20977 2 5 3
9.99355 3.22778 3.22778 2 5 3
10.002 3.24579 3.24579 2 5 3
10.0104 3.26379 3.26379 2 5 3
10.0188 3.28178 3.28178 2 5 3
10.0272 3.29977 3.29977 2 5 3
10.0357 3.31775 3.31775 2 5 3
10.0442 3.33573 3.33573 2 5 3
10.0526 3.35371 3.35371 2 5 3
10.0611 3.37168 3.37168 2 5 3
10.0696 3.38964 3.38964 2 5 3
10.0781 3.4076 3.4076 2 5 3
10.0866 3.42555 3.42555 2 5 3
10.0952 3.4435 3.4435 2 5 3
10.1037 3.46144 3.46144 2 5 3
10.1122 3.47938 3.47938 2 5 3
10.1208 3.49731 3.49731 2 5 3
10.1294 3.51524 3.51524 2 5 3
10.1379 3.53316 3.53316 2 5 3
10.1465 3.55108 3.55108 2 5 3
10.1551 3.56899 3.56899 2 5 3
10.1637 3.58689 3.58689 2 5 3
10.1724 3.60479 3.60479 2 5 3
10.181 3.62269 3.62269 2 5 3
10.1896 3.64058 3.64058 2 5 3
10.1983 3.65846 3.65846 2 5 3
10.207 3.67634 3.67634 2 5 3
10.2156 3.69421 3.69421 2 5 3
10.2243 3.71208 3.71208 2 5 3
10.233 3.72994 3.72994 2 5 3
10.2417 3.7478 3.7478 2 5 3
10.2505 3.76565 3.76565 2 5 3
10.2592 3.7835 3.7835 2 5 3
10.2679 3.80134 3.80134 2 5 3
8.72302 0.14 0.14 2 5 3
8.73632 0.177501 0.177501 2 5 3
8.74326 0.196139 0.196139 2 5 3
8.75007 0.214826 0.214826 2 5 3
8.75689 0.23351 0.23351 2 5 3
8.76372 0.252191 0.252191 2 5 3
8.77055 0.270869 0.270869 2 5 3
8.7774 0.289543 0.289543 2 5 3
8.78426 0.308214 0.308214 2 5 3
8.79112 0.326882 0.326882 2 5 3
8.79799 0.345546 0.345546 2 5 3
8.80487 0.364207 0.364207 2 5 3
8.81176 0.382864 0.382864 2 5 3
8.81866 0.401518 0.401518 2 5 3
8.82557 0.420169 0.420169 2 5 3
8.83248 0.438817 0.438817 2 5 3
8.83941 0.457461 0.457461 2 5 3
8.84634 0.476102 0.476102 2 5 3
8.85329 0.494739 0.494739 2 5 3
8.86024 0.513373 0.513373 2 5 3
8.8672 0.532003 0.532003 2 5 3
8.87417 0.55063 0.55063 2 5 3
8.88115 0.569254 0.569254 2 5 3
8.88813 0.587874 0.587874 2 5 3
8.89513 0.606491 0.606491 2 5 3
8.90214 0.625104 0.625104 2 5 3
8.90915 0.643713 0.643713 2 5 3
8.91617 0.66232 0.66232 2 5 3
8.92321 0.680922 0.680922 2 5 3
8.93025 0.699521 0.699521 2 5 3
8.9373 0.718117 0.718117 2 5 3
8.94436 0.736709 0.736709 2 5 3
8.95142 0.755298 0.755298 2 5 3
8.9585 0.773883 0.773883 2 5 3
8.96559 0.792464 0.792464 2 5 3
8.97268 0.811042 0.811042 2 5 3
8.97979 0.829617 0.829617 2 5 3
8.9869 0.848187 0.848187 2 5 3
8.99402 0.866755 0.866755 2 5 3
9.00116 0.885318 0.885318 2 5 3
9.0083 0.903878 0.903878 2 5 3
9.01545 0.922434 0.922434 2 5 3
9.02261 0.940987 0.940987 2 5 3
9.02977 0.959536 0.959536 2 5 3
9.03695 0.978081 0.978081 2 5 3
9.04414 0.996623 0.996623 2 5 3
9.05133 1.01516 1.01516 2 5 3
9.05854 1.0337 1.0337 2 5 3
9.06575 1.05223 1.05223 2 5 3
9.07298 1.07075 1.07075 2 5 3
9.08021 1.08928 1.08928 2 5 3
9.08745 1.1078 1.1078 2 5 3
9.0947 1.12631 1.12631 2 5 3
9.10196 1.14482 1.14482 2 5 3
9.10923 1.16333 1.16333 2 5 3
9.11651 1.18184 1.18184 2 5 3
9.1238 1.20034 1.20034 2 5 3
9.1311 1.21883 1.21883 2 5 3
9.13841 1.23733 1.23733 2 5 3
9.14572 1.25581 1.25581 2 5 3
9.15305 1.2743 1.2743 2 5 3
9.16038 1.29278 1.29278 2 5 3
9.16773 1.31126 1.31126 2 5 3
9.17508 1.32973 1.32973 2 5 3
9.18245 1.3482 1.3482 2 5 3
9.18982 1.36667 1.36667 2 5 3
9.1972 1.38513 1.38513 2 5 3
9.20459 1.40359 1.40359 2 5 3
9.21199 1.42204 1.42204 2 5 3
9.2194 1.44049 1.44049 2 5 3
9.22682 1.45894 1.45894 2 5 3
9.23425 1.47738 1.47738 2 5 3
9.24169 1.49582 1.49582 2 5 3
9.24914 1.51426 1.51426 2 5 3
9.2566 1.53269 1.53269 2 5 3
9.26407 1.55111 1.55111 2 5 3
9.27155 1.56954 1.56954 2 5 3
9.27903 1.58796 1.58796 2 5 3
9.28653 1.60637 1.60637 2 5 3
9.29404 1.62478 1.62478 2 5 3
9.30155 1.64319 1.64319 2 5 3
9.30908 1.66159 1.66159 2 5 3
9.31661 1.67999 1.67999 2 5 3
9.32416 1.69838 1.69838 2 5 3
9.33171 1.71677 1.71677 2 5 3
9.33927 1.73516 1.73516 2 5 3
9.34685 1.75354 1.75354 2 5 3
9.35443 1.77192 1.77192 2 5 3
9.36202 1.79029 1.79029 2 5 3
9.36963 1.80866 1.80866 2 5 3
9.37724 1.82703 1.82703 2 5 3
9.38486 1.84539 1.84539 2 5 3
9.39249 1.86375 1.86375 2 5 3
9.40014 1.8821 1.8821 2 5 3
9.40779 1.90045 1.90045 2 5 3
9.41545 1.91879 1.91879 2 5 3
9.42312 1.93713 1.93713 2 5 3
9.4308 1.95547 1.95547 2 5 3
9.43849 1.9738 1.9738 2 5 3
9.44619 1.99213 1.99213 2 5 3
9.4539 2.01045 2.01045 2 5 3
9.46162 2.02877 2.02877 2 5 3
9.46935 2.04709 2.04709 2 5 3
9.47709 2.0654 2.0654 2 5 3
9.48484 2.0837 2.0837 2 5 3
9.4926 2.10201 2.10201 2 5 3
9.50037 2.1203 2.1203 2 5 3
9.50815 2.1386 2.1386 2 5 3
9.51594 2.15689 2.15689 2 5 3
9.52374 2.17517 2.17517 2 5 3
9.53155 2.19345 2.19345 2 5 3
9.53937 2.21173 2.21173 2 5 3
9.5472 2.23 2.23 2 5 3
9.55504 2.24826 2.24826 2 5 3
9.56289 2.26653 2.26653 2 5 3
9.57075 2.28478 2.28478 2 5 3
9.57862 2.30304 2.30304 2 5 3
9.5865 2.32129 2.32129 2 5 3
9.59439 2.33953 2.33953 2 5 3
9.60229 2.35777 2.35777 2 5 3
9.6102 2.37601 2.37601 2 5 3
9.61812 2.39424 2.39424 2 5 3
9.62605 2.41247 2.41247 2 5 3
9.63399 2.43069 2.43069 2 5 3
9.64194 2.44891 2.44891 2 5 3
9.6499 2.46712 2.46712 2 5 3
9.65787 2.48533 2.48533 2 5 3
9.66585 2.50353 2.50353 2 5 3
9.67384 2.52173 2.52173 2 5 3
9.68184 2.53992 2.53992 2 5 3
9.68985 2.55811 2.55811 2 5 3
9.69787 2.5763 2.5763 2 5 3
9.70591 2.59448 2.59448 2 5 3
9.71395 2.61266 2.61266 2 5 3
9.722 2.63083 2.63083 2 5 3
9.73006 2.64899 2.64899 2 5 3
9.73814 2.66716 2.66716 2 5 3
9.74622 2.68531 2.68531 2 5 3
9.75431 2.70347 2.70347 2 5 3
9.76242 2.72161 2.72161 2 5 3
9.77053 2.73976 2.73976 2 5 3
9.77866 2.7579 2.7579 2 5 3
9.78679 2.77603 2.77603 2 5 3
9.79494 2.79416 2.79416 2 5 3
9.80309 2.81228 2.81228 2 5 3
9.81126 2.8304 2.8304 2 5 3
9.81943 2.84852 2.84852 2 5 3
9.82762 2.86663 2.86663 2 5 3
9.83582 2.88473 2.88473 2 5 3
9.84402 2.90283 2.90283 2 5 3
9.85224 2.92092 2.92092 2 5 3
9.86047 2.93901 2.93901 2 5 3
9.86871 2.9571 2.9571 2 5 3
9.87696 2.97518 2.97518 2 5 3
9.88522 2.99326 2.99326 2 5 3
9.89349 3.01133 3.01133 2 5 3
9.90177 3.02939 3.02939 2 5 3
9.91006 3.04745 3.04745 2 5 3
9.91836 3.06551 3.06551 2 5 3
9.92667 3.08356 3.08356 2 5 3
9.935 3.1016 3.1016 2 5 3
9.94333 3.11964 3.11964 2 5 3
9.95168 3.13768 3.13768 2 5 3
9.96003 3.15571 3.15571 2 5 3
9.96839 3.17374 3.17374 2 5 3
9.97677 3.19176 3.19176 2 5 3
9.98516 3.20977 3.20977 2 5 3
9.99355 3.22778 3.22778 2 5 3
10.002 3.24579 3.24579 2 5 3
10.0104 3.26379 3.26379 2 5 3
10.0188 3.28178 3.28178 2 5 3
10.0272 3.29977 3.29977 2 5 3
10.0357 3.31775 3.31775 2 5 3
10.0442 3.33573 3.33573 2 5 3
10.0526 3.35371 3.35371 2 5 3
10.0611 3.37168 3.37168 2 5 3
10.0696 3.38964 3.38964 2 5 3
10.0781 3.4076 3.4076 2 5 3
10.0866 3.42555 3.42555 2 5 3
10.0952 3.4435 3.4435 2 5 3
10.1037 3.46144 3.46144 2 5 3
10.1122 3.47938 3.47938 2 5 3
10.1208 3.49731 3.49731 2 5 3
10.1294 3.51524 3.51524 2 5 3
10.1379 3.53316 3.53316 2 5 3
10.1465 3.55108 3.55108 2 5 3
10.1551 3.56899 3.56899 2 5 3
10.1637 3.58689 3.58689 2 5 3
10.1724 3.60479 3.60479 2 5 3
10.181 3.62269 3.62269 2 5 3
10.1896 3.64058 3.64058 2 5 3
10.1983 3.65846 3.65846 2 5 3
10.207 3.67634 3.67634 2 5 3
10.2156 3.69421 3.69421 2 5 3
10.2243 3.71208 3.71208 2 5 3
10.233 3.72994 3.72994 2 5 3
10.2417 3.7478 3.7478 2 5 3
10.2505 3.76565 3.76565 2 5 3
10.2592 3.7835 3.7835 2 5 3
10.2679 3.80134 3.80134 2 5 3
10.268 3.80134 3.80134 2 5 3
10.2855 3.837 3.837 2 5 3
10.2942 3.85482 3.85482 2 5 3
10.303 3.87264 3.87264 2 5 3
10.3118 3.89045 3.89045 2 5 3
10.3206 3.90826 3.90826 2 5 3
10.3295 3.92606 3.92606 2 5 3
10.3383 3.94386 3.94386 2 5 3
10.3471 3.96165 3.96165 2 5 3
10.356 3.97943 3.97943 2 5 3
10.3648 3.99721 3.99721 2 5 3
10.3737 4.01498 4.01498 2 5 3
10.3826 4.03275 4.03275 2 5 3
10.3915 4.05051 4.05051 2 5 3
10.4004 4.06827 4.06827 2 5 3
10.4093 4.08602 4.08602 2 5 3
10.4183 4.10376 4.10376 2 5 3
10.4272 4.1215 4.1215 2 5 3
10.4362 4.13923 4.13923 2 5 3
10.4451 4.15696 4.15696 2 5 3
10.4541 4.17468 4.17468 2 5 3
10.4631 4.19239 4.19239 2 5 3
10.4721 4.2101 4.2101 2 5 3
10.4811 4.22781 4.22781 2 5 3
10.4901 4.2455 4.2455 2 5 3
10.4992 4.2632 4.2632 2 5 3
10.5082 4.28088 4.28088 2 5 3
10.5173 4.29856 4.29856 2 5 3
10.5263 4.31623 4.31623 2 5 3
10.5354 4.3339 4.3339 2 5 3
10.5445 4.35156 4.35156 2 5 3
10.5536 4.36922 4.36922 2 5 3
10.5627 4.38687 4.38687 2 5 3
10.5718 4.40451 4.40451 2 5 3
10.581 4.42215 4.42215 2 5 3
10.5901 4.43978 4.43978 2 5 3
10.5993 4.45741 4.45741 2 5 3
10.6084 4.47503 4.47503 2 5 3
10.6176 4.49264 4.49264 2 5 3
10.6268 4.51025 4.51025 2 5 3
10.636 4.52785 4.52785 2 5 3
10.6452 4.54545 4.54545 2 5 3
10.6544 4.56304 4.56304 2 5 3
10.6637 4.58062 4.58062 2 5 3
10.6729 4.5982 4.5982 2 5 3
10.6822 4.61577 4.61577 2 5 3
10.6915 4.63333 4.63333 2 5 3
10.7007 4.65089 4.65089 2 5 3
10.71 4.66844 4.66844 2 5 3
10.7193 4.68599 4.68599 2 5 3
10.7287 4.70353 4.70353 2 5 3
10.738 4.72106 4.72106 2 5 3
10.7473 4.73859 4.73859 2 5 3
10.7567 4.75611 4.75611 2 5 3
10.766 4.77362 4.77362 2 5 3
10.7754 4.79113 4.79113 2 5 3
10.7848 4.80863 4.80863 2 5 3
10.7942 4.82613 4.82613 2 5 3
10.8036 4.84362 4.84362 2 5 3
10.813 4.8611 4.8611 2 5 3
10.8225 4.87857 4.87857 2 5 3
10.8319 4.89604 4.89604 2 5 3
10.8414 4.91351 4.91351 2 5 3
10.8508 4.93096 4.93096 2 5 3
10.8603 4.94842 4.94842 2 5 3
10.8698 4.96586 4.96586 2 5 3
10.8793 4.9833 4.9833 2 5 3
10.8888 5.00073 5.00073 2 5 3
10.8983 5.01815 5.01815 2 5 3
10.9079 5.03557 5.03557 2 5 3
10.9174 5.05298 5.05298 2 5 3
10.927 5.07039 5.07039 2 5 3
10.9366 5.08778 5.08778 2 5 3
10.9462 5.10517 5.10517 2 5 3
10.9558 5.12256 5.12256 2 5 3
10.9654 5.13994 5.13994 2 5 3
10.975 5.15731 5.15731 2 5 3
10.9846 5.17467 5.17467 2 5 3
10.9943 5.19203 5.19203 2 5 3
11.0039 5.20938 5.20938 2 5 3
11.0136 5.22673 5.22673 2 5 3
11.0233 5.24407 5.24407 2 5 3
11.0329 5.2614 5.2614 2 5 3
11.0426 5.27872 5.27872 2 5 3
11.0524 5.29604 5.29604 2 5 3
11.0621 5.31335 5.31335 2 5 3
11.0718 5.33066 5.33066 2 5 3
11.0816 5.34795 5.34795 2 5 3
11.0913 5.36524 5.36524 2 5 3
11.1011 5.38253 5.38253 2 5 3
11.1109 5.3998 5.3998 2 5 3
11.1207 5.41707 5.41707 2 5 3
11.1305 5.43434 5.43434 2 5 3
11.1403 5.45159 5.45159 2 5 3
11.1501 5.46884 5.46884 2 5 3
11.16 5.48608 5.48608 2 5 3
11.1698 5.50332 5.50332 2 5 3
11.1797 5.52055 5.52055 2 5 3
11.1896 5.53777 5.53777 2 5 3
11.1995 5.55498 5.55498 2 5 3
11.2094 5.57219 5.57219 2 5 3
11.2193 5.58939 5.58939 2 5 3
11.2292 5.60658 5.60658 2 5 3
11.2392 5.62377 5.62377 2 5 3
11.2491 5.64095 5.64095 2 5 3
11.2591 5.65812 5.65812 2 5 3
11.2691 5.67529 5.67529 2 5 3
11.2791 5.69244 5.69244 2 5 3
11.2891 5.7096 5.7096 2 5 3
11.2991 5.72674 5.72674 2 5 3
11.3091 5.74387 5.74387 2 5 3
11.3191 5.761 5.761 2 5 3
11.3292 5.77813 5.77813 2 5 3
11.3392 5.79524 5.79524 2 5 3
11.3493 5.81235 5.81235 2 5 3
11.3594 5.82945 5.82945 2 5 3
11.3695 5.84654 5.84654 2 5 3
11.3796 5.86363 5.86363 2 5 3
11.3897 5.8807 5.8807 2 5 3
11.3998 5.89778 5.89778 2 5 3
11.41 5.91484 5.91484 2 5 3
11.4201 5.9319 5.9319 2 5 3
11.4303 5.94894 5.94894 2 5 3
11.4405 5.96599 5.96599 2 5 3
11.4507 5.98302 5.98302 2 5 3
11.4609 6.00005 6.00005 2 5 3
11.4711 6.01707 6.01707 2 5 3
11.4813 6.03408 6.03408 2 5 3
11.4916 6.05108 6.05108 2 5 3
11.5018 6.06808 6.06808 2 5 3
11.5121 6.08507 6.08507 2 5 3
11.5224 6.10205 6.10205 2 5 3
11.5327 6.11903 6.11903 2 5 3
11.543 6.13599 6.13599 2 5 3
11.5533 6.15295 6.15295 2 5 3
11.5636 6.1699 6.1699 2 5 3
11.5739 6.18685 6.18685 2 5 3
11.5843 6.20378 6.20378 2 5 3
11.5947 6.22071 6.22071 2 5 3
11.605 6.23763 6.23763 2 5 3
11.6154 6.25455 6.25455 2 5 3
11.6258 6.27145 6.27145 2 5 3
11.6362 6.28835 6.28835 2 5 3
11.6466 6.30524 6.30524 2 5 3
11.6571 6.32213 6.32213 2 5 3
11.6675 6.339 6.339 2 5 3
11.678 6.35587 6.35587 2 5 3
11.6885 6.37273 6.37273 2 5 3
11.699 6.38958 6.38958 2 5 3
11.7094 6.40642 6.40642 2 5 3
11.72 6.42326 6.42326 2 5 3
11.7305 6.44009 6.44009 2 5 3
11.741 6.45691 6.45691 2 5 3
11.7516 6.47372 6.47372 2 5 3
11.7621 6.49053 6.49053 2 5 3
11.7727 6.50732 6.50732 2 5 3
11.7833 6.52411 6.52411 2 5 3
11.7939 6.54089 6.54089 2 5 3
11.8045 6.55767 6.55767 2 5 3
11.8151 6.57443 6.57443 2 5 3
11.8257 6.59119 6.59119 2 5 3
11.8364 6.60794 6.60794 2 5 3
11.847 6.62468 6.62468 2 5 3
11.8577 6.64141 6.64141 2 5 3
11.8684 6.65814 6.65814 2 5 3
11.8791 6.67486 6.67486 2 5 3
11.8898 6.69156 6.69156 2 5 3
11.9005 6.70827 6.70827 2 5 3
11.9112 6.72496 6.72496 2 5 3
11.922 6.74164 6.74164 2 5 3
11.9327 6.75832 6.75832 2 5 3
11.9435 6.77499 6.77499 2 5 3
11.9543 6.79165 6.79165 2 5 3
11.9651 6.8083 6.8083 2 5 3
11.9759 6.82495 6.82495 2 5 3
11.9867 6.84158 6.84158 2 5 3
11.9975 6.85821 6.85821 2 5 3
12.0084 6.87483 6.87483 2 5 3
12.0192 6.89144 6.89144 2 5 3
12.0301 6.90804 6.90804 2 5 3
12.041 6.92464 6.92464 2 5 3
12.0519 6.94122 6.94122 2 5 3
12.0628 6.9578 6.9578 2 5 3
12.0737 6.97437 6.97437 2 5 3
12.0846 6.99093 6.99093 2 5 3
12.0956 7.00749 7.00749 2 5 3
12.1065 7.02403 7.02403 2 5 3
12.1175 7.04057 7.04057 2 5 3
12.1285 7.0571 7.0571 2 5 3
12.1394 7.07361 7.07361 2 5 3
12.1504 7.09013 7.09013 2 5 3
12.1615 7.10663 7.10663 2 5 3
12.1725 7.12312 7.12312 2 5 3
12.1835 7.13961 7.13961 2 5 3
12.1946 7.15608 7.15608 2 5 3
12.2057 7.17255 7.17255 2 5 3
12.2167 7.18901 7.18901 2 5 3
12.2278 7.20546 7.20546 2 5 3
12.2389 7.22191 7.22191 2 5 3
12.25 7.23834 7.23834 2 5 3
12.2501 7.23834 7.23834 2 5 3
12.2723 7.27118 7.27118 2 5 3
12.2835 7.28759 7.28759 2 5 3
12.2946 7.30399 7.30399 2 5 3
12.3058 7.32038 7.32038 2 5 3
12.317 7.33677 7.33677 2 5 3
12.3282 7.35314 7.35314 2 5 3
12.3394 7.3695 7.3695 2 5 3
12.3506 7.38586 7.38586 2 5 3
12.3619 7.40221 7.40221 2 5 3
12.3731 7.41855 7.41855 2 5 3
12.3844 7.43488 7.43488 2 5 3
12.3957 7.4512 7.4512 2 5 3
12.407 7.46751 7.46751 2 5 3
12.4183 7.48382 7.48382 2 5 3
12.4296 7.50011 7.50011 2 5 3
12.4409 7.5164 7.5164 2 5 3
12.4523 7.53267 7.53267 2 5 3
12.4636 7.54894 7.54894 2 5 3
12.475 7.5652 7.5652 2 5 3
12.4864 7.58145 7.58145 2 5 3
12.4978 7.59769 7.59769 2 5 3
12.5092 7.61393 7.61393 2 5 3
12.5206 7.63015 7.63015 2 5 3
12.532 7.64636 7.64636 2 5 3
12.5434 7.66257 7.66257 2 5 3
12.5549 7.67877 7.67877 2 5 3
12.5664 7.69495 7.69495 2 5 3
12.5778 7.71113 7.71113 2 5 3
12.5893 7.7273 7.7273 2 5 3
12.6008 7.74346 7.74346 2 5 3
12.6123 7.75961 7.75961 2 5 3
12.6239 7.77576 7.77576 2 5 3
12.6354 7.79189 7.79189 2 5 3
12.647 7.80801 7.80801 2 5 3
12.6585 7.82413 7.82413 2 5 3
12.6701 7.84023 7.84023 2 5 3
12.6817 7.85633 7.85633 2 5 3
12.6933 7.87242 7.87242 2 5 3
12.7049 7.8885 7.8885 2 5 3
12.7166 7.90457 7.90457 2 5 3
12.7282 7.92063 7.92063 2 5 3
12.7399 7.93668 7.93668 2 5 3
12.7515 7.95272 7.95272 2 5 3
12.7632 7.96875 7.96875 2 5 3
12.7749 7.98477 7.98477 2 5 3
12.7866 8.00079 8.00079 2 5 3
12.7983 8.01679 8.01679 2 5 3
12.81 8.03279 8.03279 2 5 3
12.8218 8.04877 8.04877 2 5 3
12.8335 8.06475 8.06475 2 5 3
12.8453 8.08071 8.08071 2 5 3
12.8571 8.09667 8.09667 2 5 3
12.8689 8.11262 8.11262 2 5 3
12.8807 8.12856 8.12856 2 5 3
12.8925 8.14449 8.14449 2 5 3
12.9043 8.16041 8.16041 2 5 3
12.9162 8.17632 8.17632 2 5 3
12.928 8.19222 8.19222 2 5 3
12.9399 8.20811 8.20811 2 5 3
12.9518 8.22399 8.22399 2 5 3
12.9637 8.23986 8.23986 2 5 3
12.9756 8.25573 8.25573 2 5 3
12.9875 8.27158 8.27158 2 5 3
12.9994 8.28742 8.28742 2 5 3
13.0113 8.30326 8.30326 2 5 3
13.0233 8.31908 8.31908 2 5 3
13.0353 8.3349 8.3349 2 5 3
13.0472 8.3507 8.3507 2 5 3
13.0592 8.3665 8.3665 2 5 3
13.0712 8.38228 8.38228 2 5 3
13.0833 8.39806 8.39806 2 5 3
13.0953 8.41382 8.41382 2 5 3
13.1073 8.42958 8.42958 2 5 3
13.1194 8.44533 8.44533 2 5 3
13.1315 8.46107 8.46107 2 5 3
13.1435 8.47679 8.47679 2 5 3
13.1556 8.49251 8.49251 2 5 3
13.1677 8.50822 8.50822 2 5 3
13.1798 8.52392 8.52392 2 5 3
13.192 8.53961 8.53961 2 5 3
13.2041 8.55529 8.55529 2 5 3
13.2163 8.57095 8.57095 2 5 3
13.2284 8.58661 8.58661 2 5 3
13.2406 8.60226 8.60226 2 5 3
13.2528 8.6179 8.6179 2 5 3
13.265 8.63353 8.63353 2 5 3
13.2772 8.64915 8.64915 2 5 3
13.2895 8.66476 8.66476 2 5 3
13.3017 8.68036 8.68036 2 5 3
13.314 8.69595 8.69595 2 5 3
13.3262 8.71153 8.71153 2 5 3
13.3385 8.7271 8.7271 2 5 3
13.3508 8.74266 8.74266 2 5 3
13.3631 8.75821 8.75821 2 5 3
13.3754 8.77375 8.77375 2 5 3
13.3877 8.78928 8.78928 2 5 3
13.4001 8.8048 8.8048 2 5 3
13.4124 8.82031 8.82031 2 5 3
13.4248 8.83581 8.83581 2 5 3
13.4372 8.8513 8.8513 2 5 3
13.4496 8.86678 8.86678 2 5 3
13.462 8.88225 8.88225 2 5 3
13.4744 8.89771 8.89771 2 5 3
13.4868 8.91316 8.91316 2 5 3
13.4993 8.9286 8.9286 2 5 3
13.5117 8.94403 8.94403 2 5 3
13.5242 8.95945 8.95945 2 5 3
13.5367 8.97485 8.97485 2 5 3
13.5491 8.99025 8.99025 2 5 3
13.5616 9.00564 9.00564 2 5 3
13.5742 9.02102 9.02102 2 5 3
13.5867 9.03639 9.03639 2 5 3
13.5992 9.05175 9.05175 2 5 3
13.6118 9.06709 9.06709 2 5 3
13.6243 9.08243 9.08243 2 5 3
13.6369 9.09776 9.09776 2 5 3
13.6495 9.11307 9.11307 2 5 3
13.6621 9.12838 9.12838 2 5 3
13.6747 9.14368 9.14368 2 5 3
13.6874 9.15896 9.15896 2 5 3
13.7 9.17424 9.17424 2 5 3
13.7126 9.1895 9.1895 2 5 3
13.7253 9.20476 9.20476 2 5 3
13.738 9.22 9.22 2 5 3
13.7507 9.23524 9.23524 2 5 3
13.7634 9.25046 9.25046 2 5 3
13.7761 9.26567 9.26567 2 5 3
13.7888 9.28087 9.28087 2 5 3
13.8015 9.29607 9.29607 2 5 3
13.8143 9.31125 9.31125 2 5 3
13.8271 9.32642 9.32642 2 5 3
13.8398 9.34158 9.34158 2 5 3
13.8526 9.35673 9.35673 2 5 3
13.8654 9.37187 9.37187 2 5 3
13.8782 9.387 9.387 2 5 3
13.8911 9.40212 9.40212 2 5 3
13.9039 9.41723 9.41723 2 5 3
13.9167 9.43232 9.43232 2 5 3
13.9296 9.44741 9.44741 2 5 3
13.9425 9.46249 9.46249 2 5 3
13.9554 9.47755 9.47755 2 5 3
13.9682 9.49261 9.49261 2 5 3
13.9812 9.50765 9.50765 2 5 3
13.9941 9.52269 9.52269 2 5 3
14.007 9.53771 9.53771 2 5 3
14.02 9.55273 9.55273 2 5 3
14.0329 9.56773 9.56773 2 5 3
14.0459 9.58272 9.58272 2 5 3
14.0589 9.5977 9.5977 2 5 3
14.0719 9.61267 9.61267 2 5 3
14.0849 9.62763 9.62763 2 5 3
14.0979 9.64258 9.64258 2 5 3
14.1109 9.65752 9.65752 2 5 3
14.124 9.67244 9.67244 2 5 3
14.137 9.68736 9.68736 2 5 3
14.1501 9.70227 9.70227 2 5 3
14.1632 9.71716 9.71716 2 5 3
14.1763 9.73205 9.73205 2 5 3
14.1894 9.74692 9.74692 2 5 3
14.2025 9.76178 9.76178 2 5 3
14.2156 9.77664 9.77664 2 5 3
14.2287 9.79148 9.79148 2 5 3
14.2419 9.80631 9.80631 2 5 3
14.2551 9.82113 9.82113 2 5 3
14.2682 9.83593 9.83593 2 5 3
14.2814 9.85073 9.85073 2 5 3
14.2946 9.86552 9.86552 2 5 3
14.3078 9.8803 9.8803 2 5 3
14.3211 9.89506 9.89506 2 5 3
14.3343 9.90982 9.90982 2 5 3
14.3475 9.92456 9.92456 2 5 3
14.3608 9.93929 9.93929 2 5 3
14.3741 9.95401 9.95401 2 5 3
14.3874 9.96872 9.96872 2 5 3
14.4007 9.98342 9.98342 2 5 3
14.414 9.99811 9.99811 2 5 3
14.4273 10.0128 10.0128 2 5 3
14.4406 10.0275 10.0275 2 5 3
14.454 10.0421 10.0421 2 5 3
14.4673 10.0568 10.0568 2 5 3
14.4807 10.0714 10.0714 2 5 3
14.4941 10.086 10.086 2 5 3
14.5075 10.1006 10.1006 2 5 3
14.5209 10.1152 10.1152 2 5 3
14.5343 10.1298 10.1298 2 5 3
14.5477 10.1444 10.1444 2 5 3
14.5611 10.159 10.159 2 5 3
14.5746 10.1735 10.1735 2 5 3
14.5881 10.1881 10.1881 2 5 3
14.6015 10.2026 10.2026 2 5 3
14.615 10.2171 10.2171 2 5 3
14.6285 10.2316 10.2316 2 5 3
14.642 10.2461 10.2461 2 5 3
14.6556 10.2606 10.2606 2 5 3
14.6691 10.2751 10.2751 2 5 3
14.6826 10.2896 10.2896 2 5 3
14.6962 10.304 10.304 2 5 3
14.7098 10.3185 10.3185 2 5 3
14.7233 10.3329 10.3329 2 5 3
14.7234 10.3329 10.3329 2 5 3
14.7505 10.3617 10.3617 2 5 3
14.7642 10.3761 10.3761 2 5 3
14.7778 10.3905 10.3905 2 5 3
14.7914 10.4049 10.4049 2 5 3
14.8051 10.4193 10.4193 2 5 3
14.8187 10.4336 10.4336 2 5 3
14.8324 10.448 10.448 2 5 3
14.8461 10.4623 10.4623 2 5 3
14.8598 10.4766 10.4766 2 5 3
14.8735 10.4909 10.4909 2 5 3
14.8872 10.5052 10.5052 2 5 3
14.901 10.5195 10.5195 2 5 3
14.9147 10.5338 10.5338 2 5 3
14.9285 10.5481 10.5481 2 5 3
14.9422 10.5623 10.5623 2 5 3
14.956 10.5766 10.5766 2 5 3
14.9698 10.5908 10.5908 2 5 3
14.9836 10.605 10.605 2 5 3
14.9974 10.6192 10.6192 2 5 3
15.0113 10.6334 10.6334 2 5 3
15.0251 10.6476 10.6476 2 5 3
15.0389 10.6618 10.6618 2 5 3
15.0528 10.6759 10.6759 2 5 3
15.0667 10.6901 10.6901 2 5 3
15.0806 10.7042 10.7042 2 5 3
15.0945 10.7184 10.7184 2 5 3
15.1084 10.7325 10.7325 2 5 3
15.1223 10.7466 10.7466 2 5 3
15.1362 10.7607 10.7607 2 5 3
15.1502 10.7748 10.7748 2 5 3
15.1641 10.7888 10.7888 2 5 3
15.1781 10.8029 10.8029 2 5 3
15.192 10.8169 10.8169 2 5 3
15.206 10.831 10.831 2 5 3
15.22 10.845 10.845 2 5 3
15.234 10.859 10.859 2 5 3
15.2481 10.873 10.873 2 5 3
15.2621 10.887 10.887 2 5 3
15.2761 10.901 10.901 2 5 3
15.2902 10.915 10.915 2 5 3
15.3043 10.9289 10.9289 2 5 3
15.3183 10.9429 10.9429 2 5 3
15.3324 10.9568 10.9568 2 5 3
15.3465 10.9707 10.9707 2 5 3
15.3606 10.9846 10.9846 2 5 3
15.3748 10.9985 10.9985 2 5 3
15.3889 11.0124 11.0124 2 5 3
15.403 11.0263 11.0263 2 5 3
15.4172 11.0402 11.0402 2 5 3
15.4314 11.054 11.054 2 5 3
15.4456 11.0679 11.0679 2 5 3
15.4597 11.0817 11.0817 2 5 3
15.4739 11.0955 11.0955 2 5 3
15.4882 11.1093 11.1093 2 5 3
15.5024 11.1231 11.1231 2 5 3
15.5166 11.1369 11.1369 2 5 3
15.5309 11.1507 11.1507 2 5 3
15.5451 11.1644 11.1644 2 5 3
15.5594 11.1782 11.1782 2 5 3
15.5737 11.1919 11.1919 2 5 3
15.588 11.2056 11.2056 2 5 3
15.6023 11.2194 11.2194 2 5 3
15.6166 11.2331 11.2331 2 5 3
15.6309 11.2468 11.2468 2 5 3
15.6452 11.2604 11.2604 2 5 3
15.6596 11.2741 11.2741 2 5 3
15.6739 11.2878 11.2878 2 5 3
15.6883 11.3014 11.3014 2 5 3
15.7027 11.315 11.315 2 5 3
15.7171 11.3287 11.3287 2 5 3
15.7315 11.3423 11.3423 2 5 3
15.7459 11.3559 11.3559 2 5 3
15.7603 11.3694 11.3694 2 5 3
15.7748 11.383 11.383 2 5 3
15.7892 11.3966 11.3966 2 5 3
15.8037 11.4101 11.4101 2 5 3
15.8181 11.4237 11.4237 2 5 3
15.8326 11.4372 11.4372 2 5 3
15.8471 11.4507 11.4507 2 5 3
15.8616 11.4642 11.4642 2 5 3
15.8761 11.4777 11.4777 2 5 3
15.8906 11.4912 11.4912 2 5 3
15.9051 11.5047 11.5047 2 5 3
15.9197 11.5181 11.5181 2 5 3
15.9342 11.5316 11.5316 2 5 3
15.9488 11.545 11.545 2 5 3
15.9634 11.5584 11.5584 2 5 3
15.978 11.5718 11.5718 2 5 3
15.9926 11.5852 11.5852 2 5 3
16.0072 11.5986 11.5986 2 5 3
16.0218 11.612 11.612 2 5 3
16.0364 11.6254 11.6254 2 5 3
16.0511 11.6387 11.6387 2 5 3
16.0657 11.6521 11.6521 2 5 3
16.0804 11.6654 11.6654 2 5 3
16.095 11.6787 11.6787 2 5 3
16.1097 11.692 11.692 2 5 3
16.1244 11.7053 11.7053 2 5 3
16.1391 11.7186 11.7186 2 5 3
16.1538 11.7318 11.7318 2 5 3
16.1686 11.7451 11.7451 2 5 3
16.1833 11.7584 11.7584 2 5 3
16.198 11.7716 11.7716 2 5 3
16.2128 11.7848 11.7848 2 5 3
16.2276 11.798 11.798 2 5 3
16.2423 11.8112 11.8112 2 5 3
16.2571 11.8244 11.8244 2 5 3
16.2719 11.8376 11.8376 2 5 3
16.2867 11.8507 11.8507 2 5 3
16.3015 11.8639 11.8639 2 5 3
16.3164 11.877 11.877 2 5 3
16.3312 11.8902 11.8902 2 5 3
16.3461 11.9033 11.9033 2 5 3
16.3609 11.9164 11.9164 2 5 3
16.3758 11.9295 11.9295 2 5 3
16.3907 11.9426 11.9426 2 5 3
16.4056 11.9556 11.9556 2 5 3
16.4205 11.9687 11.9687 2 5 3
16.4354 11.9817 11.9817 2 5 3
16.4503 11.9948 11.9948 2 5 3
16.4652 12.0078 12.0078 2 5 3
16.4802 12.0208 12.0208 2 5 3
16.4951 12.0338 12.0338 2 5 3
16.5101 12.0468 12.0468 2 5 3
16.5251 12.0598 12.0598 2 5 3
16.54 12.0727 12.0727 2 5 3
16.555 12.0857 12.0857 2 5 3
16.57 12.0986 12.0986 2 5 3
16.5851 12.1115 12.1115 2 5 3
16.6001 12.1245 12.1245 2 5 3
16.6151 12.1374 12.1374 2 5 3
16.6302 12.1502 12.1502 2 5 3
16.6452 12.1631 12.1631 2 5 3
16.6603 12.176 12.176 2 5 3
16.6754 12.1889 12.1889 2 5 3
16.6904 12.2017 12.2017 2 5 3
16.7055 12.2145 12.2145 2 5 3
16.7206 12.2273 12.2273 2 5 3
16.7358 12.2402 12.2402 2 5 3
16.7509 12.253 12.253 2 5 3
16.766 12.2657 12.2657 2 5 3
16.7812 12.2785 12.2785 2 5 3
16.7963 12.2913 12.2913 2 5 3
16.8115 12.304 12.304 2 5 3
16.8266 12.3168 12.3168 2 5 3
16.8418 12.3295 12.3295 2 5 3
16.857 12.3422 12.3422 2 5 3
16.8722 12.3549 12.3549 2 5 3
16.8874 12.3676 12.3676 2 5 3
16.9027 12.3803 12.3803 2 5 3
16.9179 12.3929 12.3929 2 5 3
16.9331 12.4056 12.4056 2 5 3
16.9484 12.4182 12.4182 2 5 3
16.9637 12.4309 12.4309 2 5 3
16.9789 12.4435 12.4435 2 5 3
16.9942 12.4561 12.4561 2 5 3
17.0095 12.4687 12.4687 2 5 3
17.0248 12.4813 12.4813 2 5 3
17.0401 12.4939 12.4939 2 5 3
17.0554 12.5064 12.5064 2 5 3
17.0708 12.519 12.519 2 5 3
17.0861 12.5315 12.5315 2 5 3
17.1015 12.544 12.544 2 5 3
17.1168 12.5565 12.5565 2 5 3
17.1322 12.569 12.569 2 5 3
17.1476 12.5815 12.5815 2 5 3
17.163 12.594 12.594 2 5 3
17.1784 12.6065 12.6065 2 5 3
17.1938 12.6189 12.6189 2 5 3
17.2092 12.6314 12.6314 2 5 3
17.2246 12.6438 12.6438 2 5 3
17.2401 12.6562 12.6562 2 5 3
17.2555 12.6686 12.6686 2 5 3
17.271 12.681 12.681 2 5 3
17.2864 12.6934 12.6934 2 5 3
17.3019 12.7058 12.7058 2 5 3
17.3174 12.7181 12.7181 2 5 3
17.3329 12.7305 12.7305 2 5 3
17.3484 12.7428 12.7428 2 5 3
17.3639 12.7551 12.7551 2 5 3
17.3794 12.7675 12.7675 2 5 3
17.3949 12.7798 12.7798 2 5 3
17.4105 12.792 12.792 2 5 3
17.426 12.8043 12.8043 2 5 3
17.4416 12.8166 12.8166 2 5 3
17.4572 12.8288 12.8288 2 5 3
17.4727 12.8411 12.8411 2 5 3
17.4883 12.8533 12.8533 2 5 3
17.5039 12.8655 12.8655 2 5 3
17.5195 12.8777 12.8777 2 5 3
17.5351 12.8899 12.8899 2 5 3
17.5508 12.9021 12.9021 2 5 3
17.5664 12.9143 12.9143 2 5 3
17.582 12.9264 12.9264 2 5 3
17.5977 12.9386 12.9386 2 5 3
17.6133 12.9507 12.9507 2 5 3
17.629 12.9628 12.9628 2 5 3
17.6447 12.975 12.975 2 5 3
17.6604 12.9871 12.9871 2 5 3
17.6604 12.9871 12.9871 2 5 3
17.6918 13.0112 13.0112 2 5 3
17.7075 13.0233 13.0233 2 5 3
17.7232 13.0353 13.0353 2 5 3
17.739 13.0474 13.0474 2 5 3
17.7547 13.0594 13.0594 2 5 3
17.7704 13.0714 13.0714 2 5 3
17.7862 13.0834 13.0834 2 5 3
17.802 13.0954 13.0954 2 5 3
17.8178 13.1074 13.1074 2 5 3
17.8335 13.1194 13.1194 2 5 3
17.8493 13.1313 13.1313 2 5 3
17.8651 13.1433 13.1433 2 5 3
17.881 13.1552 13.1552 2 5 3
17.8968 13.1671 13.1671 2 5 3
17.9126 13.1791 13.1791 2 5 3
17.9284 13.191 13.191 2 5 3
17.9443 13.2029 13.2029 2 5 3
17.9602 13.2147 13.2147 2 5 3
17.976 13.2266 13.2266 2 5 3
17.9919 13.2384 13.2384 2 5 3
18.0078 13.2503 13.2503 2 5 3
18.0237 13.2621 13.2621 2 5 3
18.0396 13.2739 13.2739 2 5 3
18.0555 13.2857 13.2857 2 5 3
18.0714 13.2975 13.2975 2 5 3
18.0873 13.3093 13.3093 2 5 3
18.1033 13.3211 13.3211 2 5 3
18.1192 13.3329 13.3329 2 5 3
18.1352 13.3446 13.3446 2 5 3
18.1511 13.3563 13.3563 2 5 3
18.1671 13.3681 13.3681 2 5 3
18.1831 13.3798 13.3798 2 5 3
18.1991 13.3915 13.3915 2 5 3
18.215 13.4032 13.4032 2 5 3
18.2311 13.4149 13.4149 2 5 3
18.2471 13.4265 13.4265 2 5 3
18.2631 13.4382 13.4382 2 5 3
18.2791 13.4498 13.4498 2 5 3
18.2952 13.4615 13.4615 2 5 3
18.3112 13.4731 13.4731 2 5 3
18.3273 13.4847 13.4847 2 5 3
18.3433 13.4963 13.4963 2 5 3
18.3594 13.5079 13.5079 2 5 3
18.3755 13.5194 13.5194 2 5 3
18.3916 13.531 13.531 2 5 3
18.4077 13.5426 13.5426 2 5 3
18.4238 13.5541 13.5541 2 5 3
18.4399 13.5656 13.5656 2 5 3
18.456 13.5771 13.5771 2 5 3
18.4721 13.5886 13.5886 2 5 3
18.4883 13.6001 13.6001 2 5 3
18.5044 13.6116 13.6116 2 5 3
18.5206 13.6231 13.6231 2 5 3
18.5367 13.6346 13.6346 2 5 3
18.5529 13.646 13.646 2 5 3
18.5691 13.6574 13.6574 2 5 3
18.5853 13.6689 13.6689 2 5 3
18.6015 13.6803 13.6803 2 5 3
18.6177 13.6917 13.6917 2 5 3
18.6339 13.7031 13.7031 2 5 3
18.6501 13.7144 13.7144 2 5 3
18.6663 13.7258 13.7258 2 5 3
18.6826 13.7372 13.7372 2 5 3
18.6988 13.7485 13.7485 2 5 3
18.7151 13.7598 13.7598 2 5 3
18.7313 13.7712 13.7712 2 5 3
18.7476 13.7825 13.7825 2 5 3
18.7639 13.7938 13.7938 2 5 3
18.7801 13.8051 13.8051 2 5 3
18.7964 13.8163 13.8163 2 5 3
18.8127 13.8276 13.8276 2 5 3
18.829 13.8388 13.8388 2 5 3
18.8454 13.8501 13.8501 2 5 3
18.8617 13.8613 13.8613 2 5 3
18.878 13.8725 13.8725 2 5 3
18.8944 13.8837 13.8837 2 5 3
18.9107 13.8949 13.8949 2 5 3
18.9271 13.9061 13.9061 2 5 3
18.9434 13.9173 13.9173 2 5 3
18.9598 13.9285 13.9285 2 5 3
18.9762 13.9396 13.9396 2 5 3
18.9926 13.9507 13.9507 2 5 3
19.0089 13.9619 13.9619 2 5 3
19.0253 13.973 13.973 2 5 3
19.0418 13.9841 13.9841 2 5 3
19.0582 13.9952 13.9952 2 5 3
19.0746 14.0063 14.0063 2 5 3
19.091 14.0173 14.0173 2 5 3
19.1075 14.0284 14.0284 2 5 3
19.1239 14.0394 14.0394 2 5 3
19.1404 14.0505 14.0505 2 5 3
19.1568 14.0615 14.0615 2 5 3
19.1733 14.0725 14.0725 2 5 3
19.1898 14.0835 14.0835 2 5 3
19.2063 14.0945 14.0945 2 5 3
19.2228 14.1055 14.1055 2 5 3
19.2393 14.1165 14.1165 2 5 3
19.2558 14.1274 14.1274 2 5 3
19.2723 14.1384 14.1384 2 5 3
19.2888 14.1493 14.1493 2 5 3
19.3054 14.1602 14.1602 2 5 3
19.3219 14.1711 14.1711 2 5 3
19.3384 14.182 14.182 2 5 3
19.355 14.1929 14.1929 2 5 3
19.3716 14.2038 14.2038 2 5 3
19.3881 14.2147 14.2147 2 5 3
19.4047 14.2255 14.2255 2 5 3
19.4213 14.2364 14.2364 2 5 3
19.4379 14.2472 14.2472 2 5 3
19.4545 14.258 14.258 2 5 3
19.4711 14.2688 14.2688 2 5 3
19.4877 14.2796 14.2796 2 5 3
19.5043 14.2904 14.2904 2 5 3
19.5209 14.3012 14.3012 2 5 3
19.5376 14.312 14.312 2 5 3
19.5542 14.3227 14.3227 2 5 3
19.5709 14.3335 14.3335 2 5 3
19.5875 14.3442 14.3442 2 5 3
19.6042 14.3549 14.3549 2 5 3
19.6208 14.3656 14.3656 2 5 3
19.6375 14.3763 14.3763 2 5 3
19.6542 14.387 14.387 2 5 3
19.6709 14.3977 14.3977 2 5 3
19.6876 14.4084 14.4084 2 5 3
19.7043 14.419 14.419 2 5 3
19.721 14.4297 14.4297 2 5 3
19.7377 14.4403 14.4403 2 5 3
19.7545 14.4509 14.4509 2 5 3
19.7712 14.4615 14.4615 2 5 3
19.7879 14.4721 14.4721 2 5 3
19.8047 14.4827 14.4827 2 5 3
19.8214 14.4933 14.4933 2 5 3
19.8382 14.5039 14.5039 2 5 3
19.855 14.5144 14.5144 2 5 3
19.8717 14.525 14.525 2 5 3
19.8885 14.5355 14.5355 2 5 3
19.9053 14.546 14.546 2 5 3
19.9221 14.5566 14.5566 2 5 3
19.9389 14.5671 14.5671 2 5 3
19.9557 14.5776 14.5776 2 5 3
19.9726 14.588 14.588 2 5 3
19.9894 14.5985 14.5985 2 5 3
20.0062 14.609 14.609 2 5 3
20.023 14.6194 14.6194 2 5 3
20.0399 14.6298 14.6298 2 5 3
20.0567 14.6403 14.6403 2 5 3
20.0736 14.6507 14.6507 2 5 3
20.0905 14.6611 14.6611 2 5 3
20.1073 14.6715 14.6715 2 5 3
20.1242 14.6819 14.6819 2 5 3
20.1411 14.6922 14.6922 2 5 3
20.158 14.7026 14.7026 2 5 3
20.1749 14.7129 14.7129 2 5 3
20.1918 14.7233 14.7233 2 5 3
20.2087 14.7336 14.7336 2 5 3
20.2256 14.7439 14.7439 2 5 3
20.2426 14.7542 14.7542 2 5 3
20.2595 14.7645 14.7645 2 5 3
20.2764 14.7748 14.7748 2 5 3
20.2934 14.7851 14.7851 2 5 3
20.3103 14.7954 14.7954 2 5 3
20.3273 14.8056 14.8056 2 5 3
20.3443 14.8159 14.8159 2 5 3
20.3612 14.8261 14.8261 2 5 3
20.3782 14.8363 14.8363 2 5 3
20.3952 14.8465 14.8465 2 5 3
20.4122 14.8567 14.8567 2 5 3
20.4292 14.8669 14.8669 2 5 3
20.4462 14.8771 14.8771 2 5 3
20.4632 14.8872 14.8872 2 5 3
20.4802 14.8974 14.8974 2 5 3
20.4972 14.9076 14.9076 2 5 3
20.5143 14.9177 14.9177 2 5 3
20.5313 14.9278 14.9278 2 5 3
20.5483 14.9379 14.9379 2 5 3
20.5654 14.948 14.948 2 5 3
20.5824 14.9581 14.9581 2 5 3
20.5995 14.9682 14.9682 2 5 3
20.6166 14.9783 14.9783 2 5 3
20.6336 14.9883 14.9883 2 5 3
20.6507 14.9984 14.9984 2 5 3
20.6678 15.0084 15.0084 2 5 3
20.6849 15.0185 15.0185 2 5 3
20.702 15.0285 15.0285 2 5 3
20.7191 15.0385 15.0385 2 5 3
20.7362 15.0485 15.0485 2 5 3
20.7533 15.0585 15.0585 2 5 3
20.7705 15.0684 15.0684 2 5 3
20.7876 15.0784 15.0784 2 5 3
20.8047 15.0884 15.0884 2 5 3
20.8219 15.0983 15.0983 2 5 3
20.839 15.1082 15.1082 2 5 3
20.8562 15.1182 15.1182 2 5 3
20.8733 15.1281 15.1281 2 5 3
20.8905 15.138 15.138 2 5 3
20.9077 15.1479 15.1479 2 5 3
20.9249 15.1578 15.1578 2 5 3
20.942 15.1676 15.1676 2 5 3
20.9592 15.1775 15.1775 2 5 3
9.07299 1.07075 1.07075 2 5 3
9.05854 1.0337 1.0337 2 5 3
9.05133 1.01516 1.01516 2 5 3
9.04414 0.996623 0.996623 2 5 3
9.03695 0.978081 0.978081 2 5 3
9.02977 0.959536 0.959536 2 5 3
9.02261 0.940987 0.940987 2 5 3
9.01545 0.922434 0.922434 2 5 3
9.0083 0.903878 0.903878 2 5 3
9.00116 0.885318 0.885318 2 5 3
8.99402 0.866754 0.866754 2 5 3
8.9869 0.848187 0.848187 2 5 3
8.97979 0.829617 0.829617 2 5 3
8.97268 0.811042 0.811042 2 5 3
8.96559 0.792464 0.792464 2 5 3
8.9585 0.773883 0.773883 2 5 3
8.95142 0.755298 0.755298 2 5 3
8.94436 0.736709 0.736709 2 5 3
8.9373 0.718117 0.718117 2 5 3
8.93025 0.699522 0.699522 2 5 3
8.92321 0.680922 0.680922 2 5 3
8.91617 0.66232 0.66232 2 5 3
8.90915 0.643713 0.643713 2 5 3
8.90214 0.625104 0.625104 2 5 3
8.89513 0.606491 0.606491 2 5 3
8.88813 0.587874 0.587874 2 5 3
8.88115 0.569254 0.569254 2 5 3
8.87417 0.55063 0.55063 2 5 3
8.8672 0.532003 0.532003 2 5 3
8.86024 0.513373 0.513373 2 5 3
8.85329 0.494739 0.494739 2 5 3
8.84634 0.476102 0.476102 2 5 3
8.83941 0.457461 0.457461 2 5 3
8.83248 0.438817 0.438817 2 5 3
8.82557 0.420169 0.420169 2 5 3
8.81866 0.401519 0.401519 2 5 3
8.81176 0.382864 0.382864 2 5 3
8.80487 0.364207 0.364207 2 5 3
8.79799 0.345546 0.345546 2 5 3
8.79112 0.326882 0.326882 2 5 3
8.78426 0.308214 0.308214 2 5 3
8.7774 0.289543 0.289543 2 5 3
8.77055 0.270869 0.270869 2 5 3
8.76372 0.252191 0.252191 2 5 3
8.75689 0.23351 0.23351 2 5 3
8.75007 0.214826 0.214826 2 5 3
8.74326 0.196139 0.196139 2 5 3
8.73645 0.177448 0.177448 2 5 3
8.72966 0.158754 0.158754 2 5 3
8.72288 0.140057 0.140057 2 5 3
8.7161 0.121357 0.121357 2 5 3
8.70933 0.102653 0.102653 2 5 3
8.70257 0.0839462 0.0839462 2 5 3
8.69582 0.0652362 0.0652362 2 5 3
8.68908 0.0465229 0.0465229 2 5 3
8.68235 0.0278064 0.0278064 2 5 3
8.67562 0.00908678 0.00908678 2 5 3
8.6689 -0.00963607 -0.00963607 2 5 3
8.6622 -0.028362 -0.028362 2 5 3
8.6555 -0.0470912 -0.0470912 2 5 3
8.64881 -0.0658235 -0.0658235 2 5 3
8.64212 -0.0845589 -0.0845589 2 5 3
8.63545 -0.103298 -0.103298 2 5 3
8.62878 -0.122039 -0.122039 2 5 3
8.62213 -0.140784 -0.140784 2 5 3
8.61548 -0.159532 -0.159532 2 5 3
8.60884 -0.178283 -0.178283 2 5 3
8.60221 -0.197037 -0.197037 2 5 3
8.59559 -0.215794 -0.215794 2 5 3
8.58897 -0.234555 -0.234555 2 5 3
8.58237 -0.253318 -0.253318 2 5 3
8.57577 -0.272084 -0.272084 2 5 3
8.56918 -0.290854 -0.290854 2 5 3
8.5626 -0.309626 -0.309626 2 5 3
8.55602 -0.328402 -0.328402 2 5 3
8.54946 -0.34718 -0.34718 2 5 3
8.5429 -0.365962 -0.365962 2 5 3
8.53636 -0.384746 -0.384746 2 5 3
8.52982 -0.403534 -0.403534 2 5 3
8.52329 -0.422324 -0.422324 2 5 3
8.51676 -0.441118 -0.441118 2 5 3
8.51025 -0.459914 -0.459914 2 5 3
8.50374 -0.478713 -0.478713 2 5 3
8.49725 -0.497516 -0.497516 2 5 3
8.49076 -0.516321 -0.516321 2 5 3
8.48427 -0.535129 -0.535129 2 5 3
8.4778 -0.553941 -0.553941 2 5 3
8.47134 -0.572755 -0.572755 2 5 3
8.46488 -0.591572 -0.591572 2 5 3
8.45843 -0.610392 -0.610392 2 5 3
8.45199 -0.629214 -0.629214 2 5 3
8.44556 -0.64804 -0.64804 2 5 3
8.43913 -0.666869 -0.666869 2 5 3
8.43272 -0.6857 -0.6857 2 5 3
8.42631 -0.704534 -0.704534 2 5 3
8.41991 -0.723371 -0.723371 2 5 3
8.41352 -0.742211 -0.742211 2 5 3
8.40714 -0.761054 -0.761054 2 5 3
8.40076 -0.7799 -0.7799 2 5 3
8.39439 -0.798748 -0.798748 2 5 3
8.38803 -0.8176 -0.8176 2 5 3
8.38168 -0.836454 -0.836454 2 5 3
8.37534 -0.855311 -0.855311 2 5 3
8.369 -0.87417 -0.87417 2 5 3
8.36268 -0.893033 -0.893033 2 5 3
8.35636 -0.911898 -0.911898 2 5 3
8.35005 -0.930766 -0.930766 2 5 3
8.34374 -0.949637 -0.949637 2 5 3
8.33745 -0.96851 -0.96851 2 5 3
8.33116 -0.987387 -0.987387 2 5 3
8.32488 -1.00627 -1.00627 2 5 3
8.31861 -1.02515 -1.02515 2 5 3
8.31235 -1.04403 -1.04403 2 5 3
8.30609 -1.06292 -1.06292 2 5 3
8.29984 -1.08181 -1.08181 2 5 3
8.29361 -1.1007 -1.1007 2 5 3
8.28737 -1.1196 -1.1196 2 5 3
8.28115 -1.13849 -1.13849 2 5 3
8.27493 -1.1574 -1.1574 2 5 3
8.26872 -1.1763 -1.1763 2 5 3
8.26252 -1.1952 -1.1952 2 5 3
8.25633 -1.21411 -1.21411 2 5 3
8.25015 -1.23302 -1.23302 2 5 3
8.24397 -1.25194 -1.25194 2 5 3
8.2378 -1.27085 -1.27085 2 5 3
8.23164 -1.28977 -1.28977 2 5 3
8.22549 -1.3087 -1.3087 2 5 3
8.21934 -1.32762 -1.32762 2 5 3
8.2132 -1.34655 -1.34655 2 5 3
8.20707 -1.36548 -1.36548 2 5 3
8.20095 -1.38441 -1.38441 2 5 3
8.19483 -1.40334 -1.40334 2 5 3
8.18873 -1.42228 -1.42228 2 5 3
8.18263 -1.44122 -1.44122 2 5 3
8.17653 -1.46016 -1.46016 2 5 3
8.17045 -1.47911 -1.47911 2 5 3
8.16437 -1.49806 -1.49806 2 5 3
8.1583 -1.51701 -1.51701 2 5 3
8.15224 -1.53596 -1.53596 2 5 3
8.14619 -1.55491 -1.55491 2 5 3
8.14014 -1.57387 -1.57387 2 5 3
8.13411 -1.59283 -1.59283 2 5 3
8.12807 -1.61179 -1.61179 2 5 3
8.12205 -1.63076 -1.63076 2 5 3
8.11604 -1.64973 -1.64973 2 5 3
8.11003 -1.6687 -1.6687 2 5 3
8.10403 -1.68767 -1.68767 2 5 3
8.09803 -1.70664 -1.70664 2 5 3
8.09205 -1.72562 -1.72562 2 5 3
8.08607 -1.7446 -1.7446 2 5 3
8.0801 -1.76358 -1.76358 2 5 3
8.07414 -1.78257 -1.78257 2 5 3
8.06818 -1.80156 -1.80156 2 5 3
8.06223 -1.82054 -1.82054 2 5 3
8.05629 -1.83954 -1.83954 2 5 3
8.05036 -1.85853 -1.85853 2 5 3
8.04443 -1.87753 -1.87753 2 5 3
8.03851 -1.89653 -1.89653 2 5 3
8.0326 -1.91553 -1.91553 2 5 3
8.0267 -1.93453 -1.93453 2 5 3
8.0208 -1.95354 -1.95354 2 5 3
8.01491 -1.97255 -1.97255 2 5 3
8.00903 -1.99156 -1.99156 2 5 3
8.00316 -2.01057 -2.01057 2 5 3
7.99729 -2.02959 -2.02959 2 5 3
7.99143 -2.04861 -2.04861 2 5 3
7.98558 -2.06763 -2.06763 2 5 3
7.97973 -2.08665 -2.08665 2 5 3
7.9739 -2.10568 -2.10568 2 5 3
7.96807 -2.1247 -2.1247 2 5 3
7.96224 -2.14373 -2.14373 2 5 3
7.95643 -2.16276 -2.16276 2 5 3
7.95062 -2.1818 -2.1818 2 5 3
7.94482 -2.20084 -2.20084 2 5 3
7.93902 -2.21987 -2.21987 2 5 3
7.93324 -2.23892 -2.23892 2 5 3
7.92746 -2.25796 -2.25796 2 5 3
7.92169 -2.277 -2.277 2 5 3
7.91592 -2.29605 -2.29605 2 5 3
7.91016 -2.3151 -2.3151 2 5 3
7.90441 -2.33416 -2.33416 2 5 3
7.89867 -2.35321 -2.35321 2 5 3
7.89293 -2.37227 -2.37227 2 5 3
7.8872 -2.39133 -2.39133 2 5 3
7.88148 -2.41039 -2.41039 2 5 3
7.87577 -2.42945 -2.42945 2 5 3
